-1.96873796 3.39180303 2.39445496
-2.18539500 1.28713298 2.38855195
-1.96873796 2.49422312 2.39385605
-1.96873796 1.61211896 2.39466596
-2.16991997 2.18471289 2.39996195
-1.96873796 3.40727806 2.39460611
-1.96873796 2.50969911 2.39364195
-2.18539500 1.30260897 2.38821197
-2.18539500 0.85381901 2.38888097
-2.16991997 3.09776807 2.39949012
-1.96873796 1.62759495 2.39433599
-2.16991997 2.20018792 2.39984608
-2.16991997 1.19428003 2.39990902
-1.96873796 2.52517390 2.39406204
-2.16991997 3.11324406 2.39952898
-1.96873796 1.64306998 2.39429688
-1.96873796 3.42275405 2.39475989
-2.16991997 0.82286799 2.39979911
-2.16991997 2.21566391 2.39975500
-1.96873796 2.54064989 2.39421201
-2.16991997 1.20975602 2.40014505
-2.16991997 3.12871909 2.39951992
-1.96873796 3.43822908 2.39468598
-2.16991997 0.83834398 2.39968395
-1.96873796 1.65854597 2.39417911
-2.16991997 2.23113894 2.39984107
-2.16991997 1.22523105 2.40001893
-2.16991997 3.14419508 2.39949393
-2.16991997 0.85381901 2.39988089
-1.96873796 3.45370507 2.39451790
-1.96873796 1.67402101 2.39413810
-1.96873796 2.55612493 2.39437008
-2.16991997 2.24661493 2.39967203
-2.16991997 1.24070704 2.39986110
-2.16991997 3.15967011 2.39967108
-1.96873796 3.46918011 2.39440703
-1.96873796 2.57160091 2.39434791
-2.16991997 2.26208997 2.39966893
-1.96873796 1.68949699 2.39412689
-2.16991997 1.25618196 2.39981699
-2.18539500 3.17514610 2.38866591
-1.96873796 3.48465610 2.39447808
-2.16991997 2.27756596 2.39973497
-1.96873796 2.58707595 2.39397407
-1.96873796 1.70497203 2.39430690
-2.16991997 1.27165794 2.39978290
-2.18539500 3.19062090 2.38870692
-1.96873796 3.50013089 2.39433098
-2.16991997 2.29304099 2.39966989
-1.96873796 2.60255194 2.39402890
-1.96873796 1.72044802 2.39445090
-2.16991997 1.28713298 2.39964390
-2.18539500 3.20609689 2.38934898
-1.96873796 3.51560712 2.39457297
-1.96873796 1.73592305 2.39410210
-1.96873796 2.61802697 2.39421701
-2.18539500 2.30851698 2.38877702
-2.18539500 3.22157192 2.38973188
-1.96873796 3.53108191 2.39482403
-2.16991997 1.30260897 2.39954591
-1.96873796 2.63350296 2.39396906
-2.18539500 2.32399201 2.38874793
-1.96873796 1.75139904 2.39409494
-2.18539500 3.23704791 2.38946199
-2.18539500 2.33946800 2.38909888
-1.96873796 2.64897799 2.39393711
-2.18539500 1.31808400 2.38837409
-1.96873796 1.76687396 2.39426398
-2.18539500 3.25252295 2.38912296
-2.18539500 2.35494399 2.38941312
-1.96873796 2.66445398 2.39448905
-1.96873796 3.54655790 2.39433503
-2.18539500 1.33355999 2.38869500
-2.18539500 3.26799893 2.38913107
-1.96873796 1.78234994 2.39427209
-2.18539500 2.37041903 2.38870502
-1.98421395 3.56203294 2.39440298
-2.18539500 3.28347397 2.38892388
-2.18539500 1.34903502 2.38889098
-1.96873796 1.79782498 2.39434910
-1.96873796 2.67992902 2.39431906
-2.18539500 2.38589501 2.38874292
-2.18539500 1.36451101 2.38896203
-1.96873796 2.69540501 2.39388204
-2.16991997 3.17514610 2.39978695
-2.18539500 2.40137005 2.38897896
-2.18539500 1.37998605 2.38874602
-2.18539500 1.79782498 2.38865900
-2.18539500 2.41684604 2.38853097
-2.16991997 3.19062090 2.39980507
-1.96873796 2.71088004 2.39388394
-2.18539500 1.39546204 2.38860989
-2.18539500 1.81330097 2.38901806
-2.16991997 2.30851698 2.39988899
-2.18539500 1.41093695 2.38866210
-2.18539500 1.82877600 2.38888502
-2.16991997 3.26799893 2.40002990
-2.16991997 2.32399201 2.39994597
-2.18539500 1.42641306 2.38877392
-2.18539500 1.84425199 2.38846993
-2.16991997 3.28347397 2.39998102
-2.16991997 2.33946800 2.40023708
-2.16991997 1.31808400 2.39954805
-2.16991997 1.33355999 2.39953303
-2.16991997 1.79782498 2.39967608
-2.18539500 3.29894996 2.38907290
-2.16991997 2.37041903 2.39999390
-2.16991997 1.81330097 2.39982200
-2.16991997 1.34903502 2.39972091
-2.18539500 3.31442499 2.38927102
-2.16991997 2.38589501 2.40022802
-2.16991997 1.82877600 2.39975095
-2.16991997 1.36451101 2.39972901
-2.18539500 3.32990098 2.38909101
-2.16991997 2.41684604 2.39999294
-2.16991997 1.84425199 2.39965701
-2.18539500 3.34537601 2.38911295
-2.16991997 1.37998605 2.39949107
-2.18539500 2.43232107 2.38877106
-2.18539500 3.36085200 2.38907409
-2.16991997 1.39546204 2.39946795
-2.18539500 2.44779706 2.38889790
-2.18539500 3.37632704 2.38872600
-2.16991997 1.41093695 2.39946198
-2.18539500 2.46327209 2.38865089
-2.18539500 3.39180303 2.38868499
-2.18539500 2.47874808 2.38877201
-2.16991997 1.42641306 2.39946294
-2.18539500 3.40727806 2.38890290
-2.18539500 2.49422312 2.38879395
-2.18539500 1.44188797 2.38876891
-2.18539500 2.50969911 2.38865900
-2.16991997 3.29894996 2.40013599
-2.18539500 1.45736396 2.38874602
-2.18539500 2.52517390 2.38878012
-2.16991997 3.31442499 2.40014100
-2.18539500 1.47283900 2.38840008
-2.18539500 2.54064989 2.38874102
-2.16991997 3.32990098 2.40014696
-2.18539500 1.48831499 2.38859606
-2.16991997 2.43232107 2.39983010
-2.16991997 3.34537601 2.40011406
-2.16991997 2.44779706 2.39987993
-2.18539500 1.50379002 2.38883400
-2.16991997 2.46327209 2.39963388
-2.18539500 1.51926601 2.38865399
-2.16991997 3.36085200 2.39991212
-2.16991997 2.47874808 2.39943600
-2.16991997 3.37632704 2.39970493
-2.18539500 1.53474200 2.38876295
-2.16991997 2.49422312 2.39957500
-2.18539500 1.55021703 2.38876796
-2.16991997 3.39180303 2.39958596
-2.16991997 2.50969911 2.39963007
-2.16991997 2.52517390 2.39963698
-2.16991997 3.40727806 2.39964795
-2.16991997 1.44188797 2.39949393
-2.16991997 2.54064989 2.39974499
-2.16991997 1.45736396 2.39955902
-2.18539500 3.42275405 2.38871789
-2.18539500 2.55612493 2.38869691
-2.16991997 1.47283900 2.39957690
-2.18539500 3.43822908 2.38860798
-2.18539500 2.57160091 2.38849401
-2.16991997 1.48831499 2.39952111
-2.18539500 3.45370507 2.38889003
-2.18539500 2.58707595 2.38844299
-2.18539500 3.46918011 2.38899994
-2.18539500 2.60255194 2.38867211
-2.16991997 1.50379002 2.39948392
-2.18539500 2.61802697 2.38869596
-2.18539500 3.48465610 2.38892698
-2.16991997 1.51926601 2.39948511
-2.18539500 2.63350296 2.38867807
-2.18539500 3.50013089 2.38914299
-2.16991997 1.53474200 2.39954305
-2.18539500 2.64897799 2.38868809
-2.18539500 3.51560712 2.38909411
-2.18539500 2.66445398 2.38872600
-2.16991997 1.55021703 2.39949107
-2.18539500 3.53108191 2.38908410
-2.16991997 2.55612493 2.39958692
-2.18539500 1.56569302 2.38861108
-2.16991997 2.57160091 2.39941692
-2.16991997 3.42275405 2.39977598
-2.18539500 1.58116806 2.38877296
-2.16991997 2.58707595 2.39947104
-2.16991997 3.43822908 2.39980507
-2.16991997 2.60255194 2.39955592
-2.18539500 1.59664404 2.38886595
-2.16991997 3.45370507 2.40006399
-2.18539500 1.61211896 2.38877296
-2.16991997 2.61802697 2.39954400
-2.16991997 3.46918011 2.40024996
-2.16991997 2.63350296 2.39944601
-2.18539500 1.62759495 2.38872290
-2.16991997 2.64897799 2.39945507
-2.16991997 3.48465610 2.40012789
-2.18539500 1.64306998 2.38851905
-2.16991997 2.66445398 2.39954400
-2.16991997 3.50013089 2.40029597
-2.18539500 1.65854597 2.38852406
-2.18539500 2.67992902 2.38868499
-2.18539500 1.67402101 2.38887811
-2.18539500 2.69540501 2.38876200
-2.18539500 3.54655790 2.38813496
-2.16991997 1.56569302 2.39948106
-2.18539500 2.71088004 2.38867903
-2.18539500 2.72635603 2.38896203
-2.16991997 1.58116806 2.39949393
-2.16991997 3.54655790 2.39996004
-2.18539500 2.74183106 2.38910294
-2.16991997 3.56203294 2.38607097
-2.16991997 1.59664404 2.39944601
-2.16991997 2.67992902 2.39948797
-2.15444398 3.56203294 2.39904809
-2.16991997 1.61211896 2.39951396
-2.16991997 2.69540501 2.39952993
-2.16991997 1.62759495 2.39955401
-2.16991997 2.71088004 2.39967990
-2.16991997 1.64306998 2.39960194
-2.16991997 2.72635603 2.40005589
-2.16991997 2.74183106 2.40005112
-2.16991997 1.65854597 2.39996505
-1.96873796 1.81330097 2.39421701
-2.16991997 1.67402101 2.39999294
-2.18539500 1.68949699 2.38882399
-2.18539500 1.70497203 2.38869691
-2.18539500 1.72044802 2.38880491
-2.18539500 1.73592305 2.38870406
-2.18539500 1.75139904 2.38866997
-2.18539500 1.76687396 2.38888192
-2.18539500 1.78234994 2.38873100
-2.16991997 1.68949699 2.39974308
-2.16991997 1.70497203 2.39973092
-2.16991997 1.72044802 2.39969492
-2.16991997 1.73592305 2.39977288
-2.16991997 1.75139904 2.39980412
-2.16991997 1.76687396 2.39968204
-2.16991997 1.78234994 2.39960599
-2.03063989 -0.00034600 2.40033102
-2.18539500 -0.00060400 2.40033102
-2.06159091 -0.00041500 2.40033102
-2.15444398 -0.00056500 2.40033102
-2.12349296 -0.00049100 2.40033102
-2.09254193 -0.00046600 2.40033102
-2.20396590 -0.00069100 2.38485503
-1.98163402 -0.00048600 2.38743496
-2.30919909 0.00098800 2.41580606
-2.14535999 1.79782498 2.41580606
-2.00134611 0.80739200 2.41580606
-2.14620399 3.40727806 2.41580606
-2.14518809 2.60255194 2.41580606
-2.00135994 2.60255194 2.41580606
-2.31441402 0.00266600 2.41580606
-2.14523602 1.81330097 2.41580606
-2.14521599 0.90024501 2.41580606
-2.14542389 1.67402101 2.41580606
-2.00127912 0.82286799 2.41580606
-2.14563608 3.42275405 2.41580606
-2.14521003 2.61802697 2.41580606
-2.00118899 2.61802697 2.41580606
-2.14529800 0.91572100 2.41580606
-2.14523506 1.82877600 2.41580606
-2.14580011 1.68949699 2.41580606
-2.32467508 0.01595600 2.41580606
-2.00106907 0.83834398 2.41580606
-2.14578891 3.43822908 2.41580606
-2.14529800 2.63350296 2.41580606
-2.00114107 2.63350296 2.41580606
-2.14562702 0.93119699 2.41580606
-2.32536101 0.01814200 2.41580606
-2.14567304 1.70497203 2.41580606
-2.14529800 1.84425199 2.41580606
-2.00110602 0.85381901 2.41580606
-2.14629006 3.45370507 2.41580606
-2.14539909 2.64897799 2.41580606
-2.00095606 2.64897799 2.41580606
-2.32813501 0.03361700 2.41580606
-2.14526701 1.85972703 2.41580606
-2.14548397 1.72044802 2.41580606
-2.00115299 0.86929500 2.41580606
-2.14577293 0.94667202 2.41580606
-2.14628601 3.46918011 2.41580606
-2.14520097 2.66445398 2.41580606
-2.00105691 2.66445398 2.41580606
-2.14569998 1.73592305 2.41580606
-2.32870293 0.04909300 2.41580606
-2.14587307 0.96214801 2.41580606
-2.14549708 1.87520301 2.41580606
-2.00114799 0.88476998 2.41580606
-2.14627290 3.48465610 2.41580606
-2.32836390 0.06456800 2.41580606
-2.14551997 2.67992902 2.41580606
-2.00105906 2.67992902 2.41580606
-2.14578104 1.89067805 2.41580606
-2.00130200 0.90024501 2.41580606
-2.14539194 1.75139904 2.41580606
-2.14577293 0.97762299 2.41580606
-2.14629507 3.50013089 2.41580606
-2.14602208 2.69540501 2.41580606
-2.00090790 2.69540501 2.41580606
-2.29372406 -0.00109500 2.41580606
-2.14545012 1.76687396 2.41580606
-2.14605498 1.90615404 2.41580606
-2.14522099 0.99309897 2.41580606
-2.00068402 0.91572100 2.41580606
-2.14642096 3.51560712 2.41580606
-2.14567304 2.71088004 2.41580606
-2.00117612 2.71088004 2.41580606
-2.27824807 -0.00202000 2.41580606
-2.14616299 1.92162895 2.41580606
-2.14562011 1.78234994 2.41580606
-2.00056791 0.93119699 2.41580606
-2.14691710 3.53108191 2.41580606
-2.14600301 2.72635603 2.41580606
-2.14582300 1.00857401 2.41580606
-2.00114703 2.72635603 2.41580606
-2.26277304 -0.00128900 2.41580606
-2.14615107 1.02405000 2.41580606
-2.14614797 1.93710494 2.41580606
-2.24729705 -0.00108300 2.41580606
-2.00100398 0.94667202 2.41580606
-2.14644003 2.74183106 2.41580606
-2.14563394 3.54655790 2.41580606
-2.00089788 2.74183106 2.41580606
-1.98421395 -0.00063200 2.41580606
-2.14541507 1.03952503 2.41580606
-2.14586306 1.95257998 2.41580606
-2.00076699 0.96214801 2.41580606
-2.23182201 -0.00091500 2.41580606
-2.14569211 2.75730705 2.41580606
-2.00138688 2.75730705 2.41580606
-1.99968898 -0.00038900 2.41580606
-2.13896894 3.55691004 2.41580606
-2.14589810 1.05500102 2.41580606
-2.21634603 -0.00042000 2.41580606
-2.14561009 1.96805596 2.41580606
-2.00056696 0.97762299 2.41580606
-2.14561391 2.77278209 2.41580606
-2.00149798 2.77278209 2.41580606
-1.96873796 -0.00057600 2.41580606
-2.12588906 3.56203294 2.41580606
-2.14584708 1.98353100 2.41580606
-2.00116992 0.99309897 2.41580606
-2.14551806 2.78825808 2.41580606
-2.14576888 1.07047606 2.41580606
-2.00144410 2.78825808 2.41580606
-1.95326304 -0.00056300 2.41580606
-2.32823706 0.08004400 2.41580606
-2.12349296 3.56223297 2.41580606
-2.14529395 1.08595204 2.41580606
-2.14578295 1.99900699 2.41580606
-2.00123501 1.00857401 2.41580606
-1.93778706 -0.00058300 2.41580606
-2.32819700 0.09551900 2.41580606
-2.14496803 2.80373311 2.41580606
-2.00206304 2.80373311 2.41580606
-2.10801792 3.56355095 2.41580606
-2.14513302 1.10142696 2.41580606
-2.14623189 2.01448202 2.41580606
-2.00129390 1.02405000 2.41580606
-2.32817698 0.11099500 2.41580606
-1.92231202 -0.00060000 2.41580606
-2.14552498 2.81920910 2.41580606
-2.09254193 3.56365490 2.41580606
-2.00138688 2.81920910 2.41580606
-2.14503789 1.11690295 2.41580606
-2.14630890 2.02995801 2.41580606
-2.00138497 1.03952503 2.41580606
-2.32820201 0.12647000 2.41580606
-1.90683603 -0.00068900 2.41580606
-2.14601707 2.83468390 2.41580606
-2.07706690 3.56343102 2.41580606
-2.00106907 2.83468390 2.41580606
-2.14589095 2.04543304 2.41580606
-2.00072408 1.05500102 2.41580606
-2.14549708 1.13237798 2.41580606
-1.89136100 -0.00090600 2.41580606
-2.32820511 0.14194600 2.41580606
-2.14593005 2.85015988 2.41580606
-2.06159091 3.56329203 2.41580606
-2.00141597 2.85015988 2.41580606
-2.14558697 1.14785397 2.41580606
-1.87588501 -0.00096400 2.41580606
-2.32820511 0.15742099 2.41580606
-2.00108790 1.07047606 2.41580606
-2.14622593 2.06090903 2.41580606
-2.14623404 2.86563492 2.41580606
-2.00114703 2.86563492 2.41580606
-2.14575410 1.16332901 2.41580606
-1.86040998 -0.00131200 2.41580606
-2.32817793 0.17289700 2.41580606
-2.00143695 1.08595204 2.41580606
-2.00124693 1.79782498 2.41580606
-2.14595008 2.07638407 2.41580606
-2.14564109 2.88111091 2.41580606
-2.00106001 2.88111091 2.41580606
-2.14637899 1.17880499 2.41580606
-1.84493399 -0.00186300 2.41580606
-2.32817292 0.18837200 2.41580606
-2.00095201 1.81330097 2.41580606
-2.00100708 1.10142696 2.41580606
-2.14560199 2.09186006 2.41580606
-2.14494896 2.89658594 2.41580606
-2.00056696 2.89658594 2.41580606
-1.82945895 -0.00100600 2.41580606
-2.00122499 1.82877600 2.41580606
-2.00111103 1.11690295 2.41580606
-2.32816410 0.20384800 2.41580606
-2.14676189 1.19428003 2.41580606
-2.14531398 2.91206193 2.41580606
-2.14586401 2.10733509 2.41580606
-2.00048900 2.91206193 2.41580606
-1.81398296 0.00129000 2.41580606
-2.00156808 1.84425199 2.41580606
-2.14601493 1.20975602 2.41580606
-2.00130391 1.13237798 2.41580606
-2.32812309 0.21932299 2.41580606
-2.14621997 2.12281108 2.41580606
-2.00105000 2.92753696 2.41580606
-2.14542198 2.92753696 2.41580606
-2.00148511 1.85972703 2.41580606
-2.00132990 1.14785397 2.41580606
-2.14562988 1.22523105 2.41580606
-2.14616799 2.13828611 2.41580606
-2.00123596 2.94301295 2.41580606
-2.14511395 2.94301295 2.41580606
-1.81074297 0.00266600 2.41580606
-2.32813406 0.23479900 2.41580606
-2.14574599 1.24070704 2.41580606
-2.00138497 1.16332901 2.41580606
-2.00132108 1.87520301 2.41580606
-2.14545989 2.15376210 2.41580606
-2.00113797 2.95848799 2.41580606
-2.32815099 0.25027400 2.41580606
-2.14480710 2.95848799 2.41580606
-1.80296898 0.01814200 2.41580606
-2.00137401 1.17880499 2.41580606
-2.00114489 1.89067805 2.41580606
-2.14546609 2.16923690 2.41580606
-2.14540792 1.25618196 2.41580606
-2.00103211 2.97396398 2.41580606
-2.14515209 2.97396398 2.41580606
-1.80126202 0.03361700 2.41580606
-2.32817101 0.26574999 2.41580606
-2.00097108 1.90615404 2.41580606
-2.14521098 1.27165794 2.41580606
-2.00066209 1.19428003 2.41580606
-2.32818198 0.28122500 2.41580606
-1.80081606 0.04909300 2.41580606
-2.14561296 2.18471289 2.41580606
-2.00122690 2.98943901 2.41580606
-2.14553809 2.98943901 2.41580606
-2.00091600 1.92162895 2.41580606
-2.14558601 1.28713298 2.41580606
-2.00031805 1.20975602 2.41580606
-1.80115998 0.06456800 2.41580606
-2.14554596 2.20018792 2.41580606
-2.00110412 3.00491500 2.41580606
-2.32813001 0.29670101 2.41580606
-2.14574099 3.00491500 2.41580606
-2.14605308 1.30260897 2.41580606
-2.00112104 1.93710494 2.41580606
-2.00082493 1.22523105 2.41580606
-2.14533496 2.21566391 2.41580606
-2.32813406 0.31217599 2.41580606
-2.00103998 3.02039099 2.41580606
-2.14563107 3.02039099 2.41580606
-1.80120301 0.08004400 2.41580606
-2.00099707 1.95257998 2.41580606
-2.00086689 1.24070704 2.41580606
-2.14497805 2.23113894 2.41580606
-2.00084209 3.03586602 2.41580606
-2.14529991 3.03586602 2.41580606
-2.14586210 1.31808400 2.41580606
-1.80126297 0.09551900 2.41580606
-2.00080109 1.96805596 2.41580606
-2.32814908 0.32765201 2.41580606
-2.00091410 1.25618196 2.41580606
-2.14583302 1.33355999 2.41580606
-2.14526701 2.24661493 2.41580606
-1.80131304 0.11099500 2.41580606
-2.00090003 1.98353100 2.41580606
-2.00077796 3.05134201 2.41580606
-2.32812595 0.34312701 2.41580606
-2.14537096 3.05134201 2.41580606
-2.00147104 1.27165794 2.41580606
-2.14559889 1.34903502 2.41580606
-2.14538908 2.26208997 2.41580606
-1.80128002 0.12647000 2.41580606
-2.00136304 3.06681705 2.41580606
-2.14559388 3.06681705 2.41580606
-2.32809401 0.35860300 2.41580606
-2.00126791 1.99900699 2.41580606
-2.00140810 1.28713298 2.41580606
-2.14541602 1.36451101 2.41580606
-2.14570904 2.27756596 2.41580606
-1.80128205 0.14194600 2.41580606
-2.00152898 3.08229303 2.41580606
-2.32809711 0.37407801 2.41580606
-2.14541292 3.08229303 2.41580606
-2.00165105 2.01448202 2.41580606
-2.00100803 1.30260897 2.41580606
-2.14565492 2.29304099 2.41580606
-1.80133104 0.15742099 2.41580606
-2.14562988 1.37998605 2.41580606
-2.00110507 3.09776807 2.41580606
-2.14551401 3.09776807 2.41580606
-2.32812905 0.38955399 2.41580606
-2.00168896 2.02995801 2.41580606
-2.14518905 1.39546204 2.41580606
-1.80134201 0.17289700 2.41580606
-2.00075293 1.31808400 2.41580606
-2.32814288 0.40502900 2.41580606
-2.14551592 2.30851698 2.41580606
-2.00145602 2.04543304 2.41580606
-2.00090289 3.11324406 2.41580606
-2.14546490 3.11324406 2.41580606
-1.80132902 0.18837200 2.41580606
-2.00076890 1.33355999 2.41580606
-2.14467692 1.41093695 2.41580606
-2.14559698 2.32399201 2.41580606
-2.32818699 0.42050499 2.41580606
-2.00074291 3.12871909 2.41580606
-2.14538789 3.12871909 2.41580606
-2.00086594 2.06090903 2.41580606
-2.14502501 1.42641306 2.41580606
-2.00085592 1.34903502 2.41580606
-1.80135405 0.20384800 2.41580606
-2.32828498 0.43597999 2.41580606
-2.14554095 2.33946800 2.41580606
-2.00075507 3.14419508 2.41580606
-2.14572001 3.14419508 2.41580606
-2.00103998 2.07638407 2.41580606
-2.00064802 1.36451101 2.41580606
-1.80137897 0.21932299 2.41580606
-2.14561200 2.35494399 2.41580606
-2.00124502 3.15967011 2.41580606
-2.32842803 0.45145601 2.41580606
-2.14540792 3.15967011 2.41580606
-2.14525104 1.44188797 2.41580606
-2.00119996 2.09186006 2.41580606
-1.80137503 0.23479900 2.41580606
-2.00066209 1.37998605 2.41580606
-2.32856894 0.46693099 2.41580606
-2.14547992 2.37041903 2.41580606
-2.14506102 1.45736396 2.41580606
-2.00062609 2.10733509 2.41580606
-2.00152612 3.17514610 2.41580606
-1.80137205 0.25027400 2.41580606
-2.14529109 3.17514610 2.41580606
-2.00061488 1.39546204 2.41580606
-2.32853508 0.48240700 2.41580606
-2.14558506 2.38589501 2.41580606
-2.14484000 1.47283900 2.41580606
-2.00123501 3.19062090 2.41580606
-2.14539790 3.19062090 2.41580606
-2.00043893 2.12281108 2.41580606
-1.80139005 0.26574999 2.41580606
-2.00053596 1.41093695 2.41580606
-2.32725191 0.49788201 2.41580606
-2.14484096 1.48831499 2.41580606
-2.14537597 2.40137005 2.41580606
-2.00080299 3.20609689 2.41580606
-2.00075102 2.13828611 2.41580606
-2.14562988 3.20609689 2.41580606
-1.80143201 0.28122500 2.41580606
-2.00123501 1.42641306 2.41580606
-2.32467508 0.50537801 2.41580606
-2.14528298 2.41684604 2.41580606
-2.00083089 3.22157192 2.41580606
-2.14513111 1.50379002 2.41580606
-2.14597607 3.22157192 2.41580606
-2.00081706 2.15376210 2.41580606
-1.80143499 0.29670101 2.41580606
-2.31424809 0.51335800 2.41580606
-2.00136089 1.44188797 2.41580606
-2.14522004 1.51926601 2.41580606
-2.14543700 2.43232107 2.41580606
-2.00095201 3.23704791 2.41580606
-2.00079107 2.16923690 2.41580606
-1.80139697 0.31217599 2.41580606
-2.30919909 0.51434898 2.41580606
-2.14610410 3.23704791 2.41580606
-2.00121498 1.45736396 2.41580606
-2.14527607 1.53474200 2.41580606
-2.14544606 2.44779706 2.41580606
-2.00068092 3.25252295 2.41580606
-2.14616394 3.25252295 2.41580606
-2.00109100 2.18471289 2.41580606
-2.00163102 1.47283900 2.41580606
-2.14519501 1.55021703 2.41580606
-2.29372406 0.51546103 2.41580606
-2.14555907 2.46327209 2.41580606
-2.00079012 3.26799893 2.41580606
-1.99968898 0.52306998 2.41580606
-2.14605498 3.26799893 2.41580606
-2.00126600 1.48831499 2.41580606
-2.00141311 2.20018792 2.41580606
-2.27824807 0.51572400 2.41580606
-2.14554811 2.47874808 2.41580606
-2.00235510 0.52883297 2.41580606
-2.00103092 3.28347397 2.41580606
-2.14574003 3.28347397 2.41580606
-2.14513206 1.56569302 2.41580606
-2.00151992 2.21566391 2.41580606
-2.26277304 0.51550198 2.41580606
-2.00102806 1.50379002 2.41580606
-2.00225306 0.54430902 2.41580606
-2.14556503 2.49422312 2.41580606
-2.14532208 1.58116806 2.41580606
-2.00178194 2.23113894 2.41580606
-2.00091505 3.29894996 2.41580606
-2.24729705 0.51531702 2.41580606
-2.00112104 1.51926601 2.41580606
-2.14563799 2.50969911 2.41580606
-2.14587998 3.29894996 2.41580606
-2.00168204 0.55978400 2.41580606
-2.14536405 1.59664404 2.41580606
-2.00096297 1.53474200 2.41580606
-2.00136590 2.24661493 2.41580606
-2.23182201 0.51515400 2.41580606
-2.14605808 2.52517390 2.41580606
-2.14598989 3.31442499 2.41580606
-1.98421395 0.51678801 2.41580606
-2.00092006 3.31442499 2.41580606
-2.14531112 1.61211896 2.41580606
-2.00095105 2.26208997 2.41580606
-2.00088191 1.55021703 2.41580606
-2.21634603 0.51506901 2.41580606
-2.14662504 2.54064989 2.41580606
-1.96873796 0.51551300 2.41580606
-2.14565611 3.32990098 2.41580606
-2.00093293 3.32990098 2.41580606
-2.00128698 2.27756596 2.41580606
-2.14551592 1.62759495 2.41580606
-2.20087099 0.51513302 2.41580606
-1.95326304 0.51530403 2.41580606
-2.14538002 3.34537601 2.41580606
-2.00130701 1.56569302 2.41580606
-2.00089097 3.34537601 2.41580606
-2.14629507 2.55612493 2.41580606
-2.00097299 2.29304099 2.41580606
-2.14549994 1.64306998 2.41580606
-2.18539500 0.51550102 2.41580606
-1.93778706 0.51504397 2.41580606
-2.00101995 1.58116806 2.41580606
-2.14568591 2.57160091 2.41580606
-2.14536095 3.36085200 2.41580606
-2.00098705 3.36085200 2.41580606
-2.14535999 1.65854597 2.41580606
-2.16991997 0.51604199 2.41580606
-2.00105691 2.30851698 2.41580606
-1.92231202 0.51502103 2.41580606
-2.00062299 1.59664404 2.41580606
-2.14528799 2.58707595 2.41580606
-2.14526391 3.37632704 2.41580606
-2.00118089 3.37632704 2.41580606
-2.15444398 0.52043903 2.41580606
-2.00123405 2.32399201 2.41580606
-1.90683603 0.51495200 2.41580606
-2.00107002 1.61211896 2.41580606
-2.14568400 3.39180303 2.41580606
-2.00109696 3.39180303 2.41580606
-2.14692903 0.52883297 2.41580606
-2.00080800 2.33946800 2.41580606
-1.89136100 0.51512098 2.41580606
-2.00125003 1.62759495 2.41580606
-2.00093508 3.40727806 2.41580606
-2.00111103 2.35494399 2.41580606
-2.14483905 0.54430902 2.41580606
-2.00135207 1.64306998 2.41580606
-1.87588501 0.51529998 2.41580606
-2.14507699 0.55978400 2.41580606
-2.00098395 3.42275405 2.41580606
-2.00172496 1.65854597 2.41580606
-2.00116396 2.37041903 2.41580606
-1.86040998 0.51547599 2.41580606
-2.00121093 1.67402101 2.41580606
-2.00073004 3.43822908 2.41580606
-2.00071692 2.38589501 2.41580606
-1.84493399 0.51569003 2.41580606
-2.14521289 0.57525998 2.41580606
-2.00079799 1.68949699 2.41580606
-2.00084400 3.45370507 2.41580606
-2.00105000 2.40137005 2.41580606
-1.82945895 0.51538599 2.41580606
-2.14558601 0.59073502 2.41580606
-2.00104594 1.70497203 2.41580606
-2.00119495 3.46918011 2.41580606
-2.00177407 2.41684604 2.41580606
-1.81398296 0.51403499 2.41580606
-2.14620495 0.60621101 2.41580606
-2.00093699 1.72044802 2.41580606
-2.00086808 3.48465610 2.41580606
-2.00114393 1.73592305 2.41580606
-2.14656401 0.62168598 2.41580606
-2.00163007 2.43232107 2.41580606
-1.80141103 0.32765201 2.41580606
-2.00085211 3.50013089 2.41580606
-2.00123310 1.75139904 2.41580606
-2.00161910 2.44779706 2.41580606
-1.80139196 0.34312701 2.41580606
-2.14586902 0.63716203 2.41580606
-2.00094795 1.76687396 2.41580606
-2.00077009 3.51560712 2.41580606
-2.00166202 2.46327209 2.41580606
-2.14595509 0.65263700 2.41580606
-1.80141604 0.35860300 2.41580606
-2.00126410 1.78234994 2.41580606
-2.00048900 3.53108191 2.41580606
-2.00137806 2.47874808 2.41580606
-1.80144203 0.37407801 2.41580606
-2.14611101 0.66811299 2.41580606
-2.03063989 3.56198502 2.41580606
-2.00131893 2.49422312 2.41580606
-2.14559007 0.68358803 2.41580606
-1.80132306 0.38955399 2.41580606
-2.03087711 3.56203294 2.41580606
-2.00152493 2.50969911 2.41580606
-1.80132198 0.40502900 2.41580606
-2.14538789 0.69906402 2.41580606
-2.00098395 3.54655790 2.41580606
-2.00095105 2.52517390 2.41580606
-1.80128801 0.42050499 2.41580606
-2.14528894 0.71454000 2.41580606
-2.01516509 3.56008291 2.41580606
-2.00088501 2.54064989 2.41580606
-1.80115497 0.43597999 2.41580606
-2.14524508 0.73001498 2.41580606
-2.04611611 3.56304789 2.41580606
-1.80091095 0.45145601 2.41580606
-2.00116897 2.55612493 2.41580606
-2.14552903 0.74549001 2.41580606
-2.00075507 2.57160091 2.41580606
-1.80054796 0.46693099 2.41580606
-2.14551401 0.76096600 2.41580606
-2.00106001 2.58707595 2.41580606
-1.80052698 0.48240700 2.41580606
-2.14528704 0.77644199 2.41580606
-1.80077398 0.49788201 2.41580606
-2.14536095 0.79191703 2.41580606
-1.81094694 0.51335800 2.41580606
-2.14537001 0.80739200 2.41580606
-2.00108600 0.57525998 2.41580606
-2.14568496 0.82286799 2.41580606
-2.00092101 0.59073502 2.41580606
-2.14577293 0.83834398 2.41580606
-2.00106692 0.60621101 2.41580606
-2.14549208 0.85381901 2.41580606
-2.00096512 0.62168598 2.41580606
-2.14543009 0.86929500 2.41580606
-2.00113106 0.63716203 2.41580606
-2.14548492 0.88476998 2.41580606
-2.00124311 0.65263700 2.41580606
-2.00119996 0.66811299 2.41580606
-2.00160289 0.68358803 2.41580606
-2.00175095 0.69906402 2.41580606
-2.00115895 0.71454000 2.41580606
-2.00105309 0.73001498 2.41580606
-2.00105190 0.74549001 2.41580606
-2.00109506 0.76096600 2.41580606
-2.00101805 0.77644199 2.41580606
-2.00103593 0.79191703 2.41580606
-2.15444398 1.68949699 2.41053104
-2.30919909 0.00266600 2.40302110
-1.98421395 2.57160091 2.40392303
-1.99968898 0.80739200 2.41475391
-2.15444398 0.91572100 2.41006589
-2.15444398 1.79782498 2.41024399
-2.15444398 3.40727806 2.41034198
-2.15444398 2.61802697 2.41003108
-2.15444398 1.70497203 2.41039991
-1.98421395 2.58707595 2.40393996
-1.99968898 0.82286799 2.41474700
-2.15444398 0.93119699 2.41013288
-2.32467508 0.01814200 2.41358590
-2.15444398 1.81330097 2.41007996
-2.15444398 3.42275405 2.41030502
-2.15444398 2.63350296 2.41008806
-2.15444398 1.67402101 2.41053295
-1.99968898 2.58707595 2.41492391
-1.99968898 0.83834398 2.41484499
-2.15444398 0.90024501 2.41022611
-2.32467508 0.03361700 2.40611506
-2.15444398 3.43822908 2.41065407
-2.15444398 2.60255194 2.41011000
-2.15444398 1.82877600 2.41006899
-1.99968898 2.60255194 2.41478395
-2.15444398 1.72044802 2.41024590
-1.99968898 0.85381901 2.41489291
-1.98421395 2.60255194 2.40398502
-2.32467508 0.04909300 2.40437508
-2.15444398 2.64897799 2.41014910
-2.15444398 3.45370507 2.41076398
-2.15444398 0.94667202 2.41028404
-2.15444398 1.73592305 2.41051102
-1.99968898 0.86929500 2.41489792
-2.15444398 1.84425199 2.41017199
-2.32467508 0.06456800 2.40525103
-2.15444398 2.66445398 2.41004491
-2.15444398 3.46918011 2.41062307
-1.99968898 2.61802697 2.41485810
-2.15444398 0.96214801 2.41031408
-2.15444398 1.85972703 2.41016102
-1.98421395 0.80739200 2.40389800
-2.15444398 1.75139904 2.41043401
-1.99968898 2.63350296 2.41490412
-1.98421395 0.82286799 2.40386605
-2.15444398 0.97762299 2.41028905
-2.15444398 3.48465610 2.41065311
-2.15444398 1.76687396 2.41032696
-2.15444398 2.67992902 2.41018701
-2.15444398 1.87520301 2.41034794
-1.99968898 2.64897799 2.41501594
-1.98421395 0.83834398 2.40372610
-2.15444398 0.99309897 2.41023803
-2.15444398 3.50013089 2.41090393
-2.15444398 2.69540501 2.41048789
-2.15444398 1.89067805 2.41031909
-2.32467508 0.08004400 2.40552306
-1.99968898 2.66445398 2.41494298
-2.15444398 1.78234994 2.41038990
-1.98421395 0.85381901 2.40392208
-2.32467508 0.09551900 2.40568209
-2.16991997 3.51560712 2.40049195
-2.15444398 2.71088004 2.41044092
-1.98421395 2.61802697 2.40406704
-2.15444398 1.00857401 2.41046000
-2.15444398 1.90615404 2.41047001
-1.98421395 0.86929500 2.40399790
-2.15444398 3.51560712 2.41125298
-2.15444398 2.72635603 2.41060591
-2.32467508 0.11099500 2.40570092
-2.15444398 1.02405000 2.41064596
-2.15444398 1.92162895 2.41057706
-1.98421395 2.63350296 2.40401411
-2.16991997 3.53108191 2.40057492
-1.99968898 0.88476998 2.41493201
-2.32467508 0.12647000 2.40567708
-2.15444398 1.03952503 2.41043997
-1.98421395 2.64897799 2.40391803
-2.15444398 2.74183106 2.41083193
-2.15444398 3.53108191 2.41127801
-1.99968898 0.90024501 2.41489506
-2.15444398 1.93710494 2.41047192
-2.32467508 0.14194600 2.40573001
-2.15444398 1.05500102 2.41049290
-1.98421395 2.66445398 2.40414405
-2.15444398 2.75730705 2.41046190
-1.81398296 0.00266600 2.40912390
-1.99968898 0.91572100 2.41519499
-2.15444398 1.95257998 2.41032600
-2.32467508 0.15742099 2.40582108
-2.15444398 3.54655790 2.41063595
-1.99968898 0.93119699 2.41523910
-1.99968898 2.67992902 2.41494298
-2.15444398 2.77278209 2.41048503
-2.15444398 1.07047606 2.41038609
-2.15444398 1.96805596 2.41031909
-2.32467508 0.17289700 2.40581012
-1.98421395 0.88476998 2.40405703
-1.99968898 2.69540501 2.41504002
-2.15444398 2.78825808 2.41041398
-2.13896894 3.56203294 2.40836501
-2.15444398 1.08595204 2.41015697
-2.15444398 1.98353100 2.41051006
-2.32467508 0.18837200 2.40570211
-1.98421395 0.90024501 2.40423298
-1.99968898 2.71088004 2.41488099
-2.15444398 1.10142696 2.41008711
-2.32467508 0.20384800 2.40563011
-1.99968898 2.72635603 2.41485095
-2.15444398 1.99900699 2.41048193
-1.98421395 0.91572100 2.40407300
-2.15444398 2.80373311 2.41003799
-2.15444398 1.11690295 2.41007400
-2.32467508 0.21932299 2.40573907
-2.15444398 2.01448202 2.41062808
-1.98421395 2.67992902 2.40415907
-1.98421395 0.93119699 2.40379095
-2.15444398 2.81920910 2.41035390
-1.99968898 1.79782498 2.41480994
-2.32467508 0.23479900 2.40566897
-2.15444398 1.13237798 2.41022491
-1.98421395 2.69540501 2.40401411
-1.99968898 1.81330097 2.41496801
-2.15444398 2.02995801 2.41068196
-1.99968898 0.94667202 2.41499400
-2.15444398 2.83468390 2.41051507
-2.15444398 1.14785397 2.41011500
-2.32467508 0.25027400 2.40539789
-1.99968898 0.52883297 2.41424990
-1.99968898 1.82877600 2.41479301
-2.15444398 2.04543304 2.41065192
-1.98421395 2.71088004 2.40409398
-1.99968898 0.96214801 2.41512394
-2.15444398 2.85015988 2.41029501
-1.99968898 0.54430902 2.41403699
-2.32467508 0.26574999 2.40535092
-2.15444398 1.16332901 2.41032004
-1.99968898 1.84425199 2.41459703
-1.98421395 2.72635603 2.40404105
-1.99968898 0.97762299 2.41522193
-1.99968898 0.55978400 2.41453195
-2.15444398 2.06090903 2.41087198
-2.15444398 2.86563492 2.41053295
-1.99968898 1.85972703 2.41463900
-2.15444398 1.17880499 2.41063190
-1.99968898 0.99309897 2.41489410
-2.32467508 0.28122500 2.40543103
-1.99968898 2.74183106 2.41501689
-1.98421395 0.52883297 2.40400791
-2.15444398 2.07638407 2.41095710
-2.15444398 2.88111091 2.41042089
-1.98421395 0.94667202 2.40379596
-1.98421395 1.79782498 2.40398002
-1.99968898 2.75730705 2.41473794
-2.32467508 0.29670101 2.40558290
-2.15444398 1.19428003 2.41096091
-1.98421395 1.81330097 2.40393400
-1.98421395 0.54430902 2.40354204
-2.15444398 2.89658594 2.41005898
-2.15444398 2.09186006 2.41086006
-1.99968898 2.77278209 2.41460109
-2.32467508 0.31217599 2.40569210
-1.98421395 0.96214801 2.40383196
-2.15444398 1.20975602 2.41091609
-1.98421395 1.82877600 2.40388393
-1.98421395 0.55978400 2.40374303
-2.15444398 2.10733509 2.41078401
-2.15444398 2.91206193 2.41010404
-1.99968898 2.78825808 2.41465592
-1.98421395 0.97762299 2.40376210
-2.15444398 1.22523105 2.41043591
-1.98421395 1.84425199 2.40392494
-2.32467508 0.32765201 2.40570593
-1.98421395 2.74183106 2.40396094
-1.98421395 0.99309897 2.40392089
-2.15444398 2.12281108 2.41072297
-2.15444398 1.24070704 2.41034102
-2.15444398 2.92753696 2.41010904
-1.98421395 1.85972703 2.40392208
-2.32467508 0.34312701 2.40576601
-1.98421395 2.75730705 2.40411592
-1.81398296 0.51335800 2.40972710
-2.15444398 2.13828611 2.41075993
-2.15444398 2.94301295 2.41000795
-1.99968898 1.00857401 2.41482306
-2.32467508 0.35860300 2.40589190
-1.99968898 1.87520301 2.41475701
-2.15444398 1.25618196 2.41025305
-1.98421395 2.77278209 2.40416098
-1.99968898 1.02405000 2.41474605
-2.15444398 2.15376210 2.41051197
-2.32467508 0.37407801 2.40588808
-2.15444398 2.95848799 2.40982509
-1.99968898 1.89067805 2.41483998
-2.15444398 1.27165794 2.41014004
-1.98421395 2.78825808 2.40413594
-1.99968898 1.03952503 2.41474509
-2.15444398 2.16923690 2.41047311
-2.15444398 2.97396398 2.40988302
-1.99968898 1.90615404 2.41493702
-2.32467508 0.38955399 2.40591311
-2.15444398 1.28713298 2.41016412
-1.99968898 1.05500102 2.41516399
-1.99968898 2.80373311 2.41437101
-1.99968898 1.92162895 2.41500092
-2.32467508 0.40502900 2.40597296
-2.15444398 1.30260897 2.41033411
-2.15444398 2.98943901 2.41008592
-2.15444398 2.18471289 2.41051793
-1.98421395 1.00857401 2.40391707
-1.99968898 2.81920910 2.41473198
-1.98421395 1.87520301 2.40395188
-1.99968898 0.57525998 2.41489196
-2.32467508 0.42050499 2.40596008
-2.15444398 3.00491500 2.41018701
-2.15444398 2.20018792 2.41047907
-1.98421395 1.02405000 2.40388107
-1.99968898 2.83468390 2.41490698
-1.99968898 0.59073502 2.41503191
-1.98421395 1.89067805 2.40398097
-2.32467508 0.43597999 2.40560198
-2.15444398 1.31808400 2.41014791
-2.15444398 3.02039099 2.41014290
-1.99968898 2.85015988 2.41470098
-1.98421395 1.03952503 2.40395498
-2.15444398 2.21566391 2.41029191
-1.99968898 0.60621101 2.41495991
-1.98421395 1.90615404 2.40389800
-2.15444398 1.33355999 2.41026306
-2.15444398 3.03586602 2.41005397
-2.32467508 0.45145601 2.40526104
-1.98421395 2.80373311 2.40401101
-1.98421395 1.05500102 2.40399504
-2.15444398 2.23113894 2.41008306
-1.99968898 0.62168598 2.41498494
-1.98421395 1.92162895 2.40394402
-2.32467508 0.46693099 2.40490699
-2.15444398 1.34903502 2.41042399
-1.98421395 2.81920910 2.40391493
-1.98421395 0.57525998 2.40384293
-2.15444398 3.05134201 2.40996504
-1.99968898 1.07047606 2.41499805
-2.15444398 2.24661493 2.41020298
-2.15444398 1.36451101 2.41018200
-1.99968898 1.93710494 2.41490102
-2.32467508 0.48240700 2.40527010
-1.98421395 2.83468390 2.40401793
-1.98421395 0.59073502 2.40409493
-2.15444398 3.06681705 2.41007590
-1.99968898 1.08595204 2.41480303
-2.15444398 2.26208997 2.41032290
-1.99968898 1.95257998 2.41496611
-2.32467508 0.49788201 2.40838909
-1.98421395 2.85015988 2.40392494
-2.15444398 1.37998605 2.41017389
-1.98421395 0.60621101 2.40412402
-1.99968898 1.10142696 2.41496706
-2.15444398 3.08229303 2.41012907
-1.99968898 1.96805596 2.41507101
-2.15444398 2.27756596 2.41044903
-2.15444398 1.39546204 2.41001606
-1.99968898 1.11690295 2.41490602
-1.99968898 2.86563492 2.41485000
-2.30919909 0.51335800 2.40476203
-2.15444398 2.29304099 2.41037989
-1.98421395 0.62168598 2.40416503
-2.15444398 1.41093695 2.40978694
-1.99968898 1.98353100 2.41501689
-1.98421395 1.07047606 2.40410089
-1.99968898 2.88111091 2.41497111
-2.15444398 3.09776807 2.41007900
-2.15444398 1.42641306 2.40993094
-1.98421395 1.08595204 2.40419292
-1.98421395 1.93710494 2.40401506
-1.99968898 0.63716203 2.41489506
-1.99968898 2.89658594 2.41529894
-2.15444398 2.30851698 2.41051888
-2.15444398 3.11324406 2.41008592
-1.99968898 0.65263700 2.41483402
-1.98421395 1.10142696 2.40418291
-1.98421395 1.95257998 2.40396905
-1.99968898 2.91206193 2.41530299
-2.15444398 1.44188797 2.41002297
-2.15444398 2.32399201 2.41044497
-2.15444398 3.12871909 2.41014409
-2.16991997 0.52883297 2.40073705
-1.98421395 1.11690295 2.40429902
-1.99968898 0.66811299 2.41483593
-2.15444398 1.45736396 2.40989804
-1.98421395 2.86563492 2.40377307
-1.98421395 1.96805596 2.40390897
-2.15444398 2.33946800 2.41034293
-2.15444398 0.52883297 2.41085696
-2.15444398 3.14419508 2.41025710
-1.99968898 0.68358803 2.41460609
-1.98421395 2.88111091 2.40381503
-1.99968898 1.13237798 2.41476989
-1.98421395 1.98353100 2.40396094
-2.15444398 1.47283900 2.40991807
-2.16991997 2.35494399 2.40045094
-2.15444398 3.15967011 2.41031194
-1.98421395 0.63716203 2.40405703
-2.15444398 0.54430902 2.40982890
-1.99968898 1.14785397 2.41469598
-1.98421395 2.89658594 2.40409207
-2.15444398 1.48831499 2.40989900
-2.15444398 2.35494399 2.41057897
-1.99968898 1.99900699 2.41480899
-2.15444398 0.55978400 2.41014099
-1.98421395 0.65263700 2.40393591
-1.99968898 1.16332901 2.41471410
-1.98421395 2.91206193 2.40425611
-2.15444398 3.17514610 2.41032290
-1.99968898 2.01448202 2.41457105
-2.15444398 1.50379002 2.40999794
-1.98421395 0.66811299 2.40409994
-1.99968898 1.17880499 2.41476107
-2.15444398 2.37041903 2.41059804
-2.15444398 3.19062090 2.41022491
-1.99968898 2.02995801 2.41456389
-1.99968898 2.92753696 2.41493607
-2.15444398 0.57525998 2.41017199
-2.15444398 1.51926601 2.41017509
-1.98421395 0.68358803 2.40396690
-2.15444398 2.38589501 2.41069198
-1.98421395 1.13237798 2.40410209
-1.99968898 2.04543304 2.41477489
-2.16991997 3.20609689 2.40051508
-1.99968898 2.94301295 2.41480994
-2.15444398 0.59073502 2.41042399
-1.98421395 1.14785397 2.40395904
-2.15444398 1.53474200 2.41006303
-1.99968898 0.69906402 2.41459298
-2.16991997 2.40137005 2.40042591
-1.98421395 1.99900699 2.40409493
-2.15444398 3.20609689 2.41060400
-1.99968898 2.95848799 2.41484690
-2.15444398 1.55021703 2.41006708
-1.99968898 0.71454000 2.41491008
-2.15444398 0.60621101 2.41074204
-1.98421395 1.16332901 2.40412807
-2.15444398 2.40137005 2.41069794
-2.16991997 3.22157192 2.40097499
-1.98421395 2.01448202 2.40406394
-1.99968898 2.97396398 2.41495609
-2.15444398 0.62168598 2.41095996
-1.99968898 0.73001498 2.41491008
-1.98421395 1.17880499 2.40430307
-2.15444398 3.22157192 2.41087508
-2.15444398 2.41684604 2.41058111
-1.98421395 2.92753696 2.40406299
-1.98421395 2.02995801 2.40417194
-2.15444398 1.56569302 2.41011405
-1.99968898 0.74549001 2.41491389
-1.99968898 1.19428003 2.41520810
-2.15444398 0.63716203 2.41090202
-2.15444398 1.58116806 2.41011190
-1.98421395 2.04543304 2.40448689
-1.98421395 2.94301295 2.40398598
-2.16991997 3.23704791 2.40078306
-1.98421395 0.69906402 2.40396309
-2.15444398 2.43232107 2.41048908
-1.99968898 1.20975602 2.41545010
-2.15444398 0.65263700 2.41072989
-2.15444398 3.23704791 2.41096401
-1.98421395 2.95848799 2.40414500
-2.15444398 2.44779706 2.41038394
-1.98421395 0.71454000 2.40388489
-2.15444398 1.59664404 2.41003799
-1.99968898 2.06090903 2.41509700
-1.99968898 1.22523105 2.41511512
-2.16991997 3.25252295 2.40043402
-2.15444398 0.66811299 2.41053391
-1.98421395 2.97396398 2.40447903
-2.15444398 1.61211896 2.41002989
-1.99968898 2.07638407 2.41495299
-1.98421395 0.73001498 2.40379906
-1.99968898 1.24070704 2.41502905
-2.15444398 2.46327209 2.41023588
-2.15444398 3.25252295 2.41100788
-2.15444398 0.68358803 2.41028190
-1.98421395 0.74549001 2.40380692
-1.99968898 2.98943901 2.41485310
-1.99968898 2.09186006 2.41490602
-2.15444398 2.47874808 2.41020703
-1.98421395 1.19428003 2.40466595
-2.15444398 1.62759495 2.41015911
-2.15444398 3.26799893 2.41062593
-1.99968898 3.00491500 2.41484904
-1.99968898 2.10733509 2.41524196
-2.15444398 0.69906402 2.41020298
-1.98421395 1.20975602 2.40513396
-2.15444398 1.64306998 2.41030693
-1.99968898 0.76096600 2.41492891
-2.15444398 3.28347397 2.41033006
-2.15444398 2.49422312 2.41039109
-2.15444398 0.71454000 2.41002202
-1.99968898 3.02039099 2.41491890
-1.98421395 2.06090903 2.40437293
-1.99968898 0.77644199 2.41498303
-1.98421395 1.22523105 2.40481591
-2.15444398 1.65854597 2.41062808
-2.15444398 2.50969911 2.41059089
-1.99968898 3.03586602 2.41508389
-1.98421395 2.07638407 2.40404010
-1.99968898 0.79191703 2.41495395
-1.98421395 1.24070704 2.40480399
-2.15444398 0.73001498 2.40996909
-2.15444398 3.29894996 2.41052389
-2.15444398 2.52517390 2.41058898
-1.98421395 2.98943901 2.40436101
-1.98421395 2.09186006 2.40416193
-2.15444398 0.74549001 2.41025090
-2.15444398 3.31442499 2.41074705
-1.98421395 0.76096600 2.40387988
-1.99968898 1.25618196 2.41502690
-2.15444398 2.54064989 2.41079998
-1.98421395 3.00491500 2.40400910
-1.98421395 2.10733509 2.40415311
-1.98421395 0.77644199 2.40397596
-2.15444398 3.32990098 2.41054010
-1.99968898 1.27165794 2.41472411
-2.15444398 0.76096600 2.41032910
-1.98421395 3.02039099 2.40389299
-2.15444398 3.34537601 2.41022801
-1.99968898 2.12281108 2.41534495
-1.98421395 0.79191703 2.40389895
-1.99968898 1.28713298 2.41467404
-2.15444398 2.55612493 2.41074800
-2.15444398 0.77644199 2.41023588
-1.98421395 3.03586602 2.40389705
-1.99968898 2.13828611 2.41518211
-2.15444398 3.36085200 2.41018200
-1.99968898 1.30260897 2.41493106
-2.15444398 2.57160091 2.41021991
-2.15444398 0.79191703 2.41029191
-2.15444398 3.37632704 2.41011596
-1.99968898 2.15376210 2.41511106
-1.99968898 3.05134201 2.41509295
-1.98421395 1.25618196 2.40482497
-2.15444398 0.80739200 2.41040707
-2.15444398 2.58707595 2.41001701
-2.15444398 3.39180303 2.41015410
-1.99968898 2.16923690 2.41509199
-1.99968898 3.06681705 2.41473889
-1.98421395 1.27165794 2.40430188
-2.15444398 0.82286799 2.41053391
-1.99968898 3.08229303 2.41462898
-1.98421395 1.28713298 2.40412498
-1.98421395 2.12281108 2.40412498
-2.15444398 0.83834398 2.41048288
-1.99968898 3.09776807 2.41485500
-1.98421395 1.30260897 2.40431190
-1.98421395 2.13828611 2.40433002
-2.15444398 0.85381901 2.41037297
-1.98421395 3.05134201 2.40398908
-1.99968898 1.31808400 2.41513896
-1.98421395 2.15376210 2.40418696
-2.15444398 0.86929500 2.41020203
-1.98421395 3.06681705 2.40380907
-1.99968898 1.33355999 2.41510010
-1.98421395 2.16923690 2.40406704
-2.15444398 0.88476998 2.41025996
-1.99968898 1.34903502 2.41506290
-1.98421395 3.08229303 2.40366697
-1.99968898 1.36451101 2.41519499
-1.99968898 2.18471289 2.41490006
-1.98421395 3.09776807 2.40369797
-1.98421395 1.31808400 2.40456796
-1.99968898 2.20018792 2.41469097
-1.99968898 3.11324406 2.41503596
-1.98421395 1.33355999 2.40425396
-1.99968898 3.12871909 2.41516304
-1.99968898 2.21566391 2.41462994
-1.98421395 1.34903502 2.40411592
-1.99968898 2.23113894 2.41453290
-1.99968898 3.14419508 2.41513896
-1.98421395 1.36451101 2.40401602
-1.99968898 3.15967011 2.41484189
-1.98421395 2.18471289 2.40395808
-1.99968898 1.37998605 2.41519308
-1.98421395 3.11324406 2.40398908
-1.98421395 2.20018792 2.40391803
-1.99968898 1.39546204 2.41523695
-1.99968898 1.41093695 2.41529202
-1.98421395 3.12871909 2.40432096
-1.98421395 2.21566391 2.40391493
-1.99968898 1.42641306 2.41492105
-1.98421395 2.23113894 2.40389395
-1.98421395 3.14419508 2.40417290
-1.98421395 1.37998605 2.40409994
-1.98421395 3.15967011 2.40401101
-1.99968898 2.24661493 2.41471910
-1.98421395 1.39546204 2.40422511
-1.99968898 2.26208997 2.41496301
-1.98421395 1.41093695 2.40412998
-1.99968898 3.17514610 2.41470790
-1.98421395 1.42641306 2.40412211
-1.99968898 2.27756596 2.41476297
-1.99968898 3.19062090 2.41482306
-1.99968898 2.29304099 2.41494703
-1.99968898 1.44188797 2.41478705
-1.99968898 3.20609689 2.41505098
-1.99968898 1.45736396 2.41481805
-1.98421395 2.24661493 2.40380001
-1.99968898 3.22157192 2.41506195
-1.99968898 1.47283900 2.41456294
-1.98421395 2.26208997 2.40382290
-1.98421395 3.17514610 2.40404606
-1.99968898 1.48831499 2.41477299
-1.98421395 1.44188797 2.40415001
-1.98421395 3.19062090 2.40394807
-1.98421395 2.27756596 2.40382099
-1.98421395 1.45736396 2.40413690
-1.98421395 2.29304099 2.40381908
-1.98421395 3.20609689 2.40393996
-1.98421395 1.47283900 2.40392494
-1.98421395 3.22157192 2.40394402
-1.98421395 1.48831499 2.40375304
-1.99968898 2.30851698 2.41497302
-1.99968898 3.23704791 2.41502810
-1.99968898 2.32399201 2.41487288
-1.99968898 1.50379002 2.41488409
-1.99968898 1.51926601 2.41486502
-1.99968898 3.25252295 2.41516709
-1.99968898 2.33946800 2.41507006
-1.99968898 3.26799893 2.41508794
-1.99968898 2.35494399 2.41490102
-1.99968898 3.28347397 2.41496611
-1.99968898 1.53474200 2.41498590
-1.98421395 2.30851698 2.40405703
-1.98421395 3.23704791 2.40404510
-1.99968898 1.55021703 2.41501999
-1.98421395 2.32399201 2.40396595
-1.98421395 3.25252295 2.40404105
-1.98421395 1.50379002 2.40360498
-1.98421395 2.33946800 2.40385199
-1.98421395 3.26799893 2.40397096
-1.98421395 1.51926601 2.40387988
-1.98421395 2.35494399 2.40390301
-1.98421395 3.28347397 2.40433598
-1.98421395 1.53474200 2.40394902
-1.98421395 1.55021703 2.40378690
-1.99968898 2.37041903 2.41486502
-1.99968898 3.29894996 2.41502309
-1.99968898 2.38589501 2.41511393
-1.99968898 1.56569302 2.41477990
-1.99968898 3.31442499 2.41499996
-1.99968898 1.58116806 2.41493511
-1.99968898 2.40137005 2.41492891
-1.99968898 3.32990098 2.41500401
-1.99968898 1.59664404 2.41517591
-1.99968898 2.41684604 2.41456509
-1.99968898 3.34537601 2.41501689
-1.99968898 1.61211896 2.41489792
-1.98421395 2.37041903 2.40379596
-1.98421395 1.56569302 2.40402699
-1.98421395 3.29894996 2.40487409
-1.98421395 2.38589501 2.40376806
-1.98421395 1.58116806 2.40417409
-1.98421395 3.31442499 2.40454412
-1.98421395 1.59664404 2.40443206
-1.98421395 2.40137005 2.40394306
-1.98421395 3.32990098 2.40421796
-1.98421395 1.61211896 2.40439510
-1.98421395 2.41684604 2.40401912
-1.98421395 3.34537601 2.40440798
-1.99968898 1.62759495 2.41476202
-1.99968898 2.43232107 2.41460109
-1.99968898 1.64306998 2.41470909
-1.99968898 3.36085200 2.41495109
-1.99968898 2.44779706 2.41457701
-1.99968898 1.65854597 2.41461802
-1.99968898 3.37632704 2.41488409
-1.99968898 1.67402101 2.41481709
-1.99968898 2.46327209 2.41457510
-1.99968898 3.39180303 2.41493511
-1.98421395 1.62759495 2.40404010
-1.99968898 2.47874808 2.41471505
-1.99968898 3.40727806 2.41500211
-1.98421395 1.64306998 2.40403199
-1.98421395 2.43232107 2.40402889
-1.98421395 3.36085200 2.40425801
-1.98421395 1.65854597 2.40409398
-1.98421395 2.44779706 2.40413904
-1.98421395 1.67402101 2.40394402
-1.98421395 3.37632704 2.40424204
-1.98421395 2.46327209 2.40393710
-1.99968898 1.68949699 2.41506791
-1.98421395 3.39180303 2.40414310
-1.99968898 1.70497203 2.41494298
-1.98421395 2.47874808 2.40386605
-1.98421395 3.40727806 2.40403199
-1.99968898 1.72044802 2.41495895
-1.99968898 2.49422312 2.41476393
-1.99968898 1.73592305 2.41486096
-1.99968898 3.42275405 2.41497111
-1.99968898 2.50969911 2.41469502
-1.98421395 1.68949699 2.40397191
-1.99968898 3.43822908 2.41514206
-1.98421395 1.70497203 2.40402889
-1.99968898 2.52517390 2.41500807
-1.99968898 3.45370507 2.41506600
-1.98421395 1.72044802 2.40393209
-1.99968898 2.54064989 2.41506100
-1.99968898 3.46918011 2.41487098
-1.98421395 1.73592305 2.40386391
-1.98421395 2.49422312 2.40392995
-1.98421395 3.42275405 2.40413499
-1.99968898 1.75139904 2.41483307
-1.98421395 2.50969911 2.40390396
-1.98421395 3.43822908 2.40409398
-1.99968898 1.76687396 2.41497111
-1.99968898 1.78234994 2.41476798
-1.98421395 2.52517390 2.40410209
-1.98421395 3.45370507 2.40403008
-1.98421395 1.75139904 2.40392303
-1.98421395 2.54064989 2.40423489
-1.98421395 3.46918011 2.40417194
-1.98421395 1.76687396 2.40403199
-1.99968898 3.48465610 2.41502810
-1.99968898 2.55612493 2.41490412
-1.98421395 1.78234994 2.40401602
-1.99968898 3.50013089 2.41504002
-1.99968898 2.57160091 2.41510296
-1.99968898 3.51560712 2.41512394
-1.98421395 2.55612493 2.40410399
-1.99968898 3.53108191 2.41530395
-1.98421395 3.48465610 2.40417290
-1.98421395 3.50013089 2.40394497
-1.98421395 3.51560712 2.40412402
-1.98421395 3.53108191 2.40435600
-2.03063989 3.56203294 2.41565800
-1.99968898 3.54655790 2.41497207
-2.01516509 3.56203294 2.41203904
-1.99968898 3.56203294 2.40335298
-1.98421395 3.54655790 2.40428710
-2.08827400 3.40727806 2.43128204
-2.06037211 2.60255194 2.43128204
-2.05963802 0.83834398 2.43128204
-2.30919909 0.00062600 2.43128204
-2.08813405 1.79782498 2.43128204
-2.08710098 1.67402101 2.43128204
-2.08782005 0.86929500 2.43128204
-2.08749294 3.42275405 2.43128204
-2.08858109 2.60255194 2.43128204
