-2.50262022 0.67374671 3.02569056
-2.46859646 0.33147645 3.41065693
-1.68328691 0.70503867 3.04678869
-2.23981524 0.68386483 3.03236818
-1.88114893 0.35370421 3.42601538
-2.53745174 0.50619376 3.21062136
-2.23671007 0.34038401 3.41657019
-2.53708768 0.53716028 3.17602682
-2.48716378 0.67458355 3.02581358
-2.45313787 0.33202648 3.41110039
-1.66782832 0.70563316 3.04718208
-1.86568916 0.35431457 3.42639208
-2.53725696 0.51651859 3.19909191
-2.22435689 0.68445039 3.03277063
-2.53707719 0.54747868 3.16449261
-2.22125149 0.34095812 3.41698694
-2.47170305 0.67510271 3.02629089
-2.43767881 0.33266544 3.41144323
-1.65236878 0.70620990 3.04759550
-1.85022986 0.35483551 3.42686701
-2.20889664 0.68503928 3.03317118
-2.53730917 0.52683473 3.18755579
-2.20579147 0.34154761 3.41738653
-2.53705120 0.55779707 3.15295887
-2.45624495 0.67570138 3.02667952
-2.42222071 0.33330631 3.41178513
-1.83476937 0.35531449 3.42739010
-2.19343901 0.68562961 3.03356838
-1.58541560 0.63526511 3.13149023
-2.19033337 0.34215128 3.41776848
-2.44078493 0.67624867 3.02712584
-2.53706956 0.56811476 3.14142370
-2.40676165 0.33392501 3.41215134
-2.17797947 0.68622208 3.03396511
-2.42532587 0.67682695 3.02753830
-1.58514202 0.64559317 3.11996174
-2.17487335 0.34270763 3.41820574
-1.60344100 0.36631966 3.43092012
-2.53739381 0.57841957 3.12988138
-2.40986681 0.67738843 3.02796841
-2.16252041 0.68681526 3.03435993
-2.53556204 0.38245344 3.34908438
-1.60290432 0.36650944 3.43074465
-2.15941477 0.34327674 3.41862726
-1.58504486 0.65591431 3.10843039
-2.53744626 0.58873510 3.11834478
-2.14706087 0.68740845 3.03475428
-2.53537750 0.39277792 3.33755493
-2.14395523 0.34385943 3.41903353
-1.58835483 0.37721121 3.41977644
-2.53734183 0.59905672 3.10681343
-1.58465266 0.66624749 3.09690571
-2.53562498 0.40308630 3.32601357
-2.13160229 0.68799973 3.03515148
-1.58754849 0.37855279 3.41833210
-1.58400249 0.67658973 3.08538866
-2.53728008 0.60937703 3.09527969
-2.12849665 0.34445882 3.41942167
-2.11614275 0.68858910 3.03555012
-1.58408260 0.38769138 3.40835333
-2.11303616 0.34499407 3.41988134
-1.58387303 0.68691242 3.07385683
-2.10068369 0.68917799 3.03595066
-1.58312917 0.39804566 3.39684296
-2.09757710 0.34554815 3.42032003
-1.58566737 0.69716144 3.06227589
-1.58356047 0.40834630 3.38529730
-2.08522463 0.68977094 3.03634644
-2.08211780 0.34613156 3.42072487
-1.63691020 0.70686448 3.04792166
-2.06665754 0.34658158 3.42128086
-1.58364117 0.41866159 3.37376022
-2.06976581 0.69035220 3.03675461
-1.62144971 0.70729303 3.04850054
-2.05119920 0.34726059 3.42157936
-1.58379531 0.42897272 3.36222219
-2.05430603 0.69094276 3.03715229
-1.59048307 0.70311797 3.05528784
-2.03574038 0.34781432 3.42201948
-1.88425636 0.69740427 3.04156780
-2.03884745 0.69152868 3.03755522
-1.60324430 0.70681107 3.05028582
-1.86879635 0.69799697 3.04196358
-1.60598302 0.70701897 3.04986572
-1.85333800 0.69859087 3.04235744
-1.83787787 0.69918156 3.04275513
-1.81931150 0.35593772 3.42775106
-1.80385172 0.35649908 3.42818165
-2.54620266 0.40557134 3.30756283
-2.54807281 0.61194515 3.07690525
-2.54541850 0.33122540 3.38639975
-2.54629135 0.41581607 3.29596329
-2.54818010 0.62247908 3.06556416
-2.54566383 0.34402978 3.37709141
-2.54732704 0.52943313 3.16920185
-2.54637861 0.42602921 3.28433609
-2.54830146 0.63324773 3.05443478
-2.54741812 0.53970289 3.15762424
-2.54577875 0.35469222 3.36586523
-1.58972883 0.68557525 3.05195093
-2.54750776 0.54995012 3.14602804
-1.58700037 0.37727547 3.39906502
-2.54647422 0.43638754 3.27283859
-2.54840493 0.64373052 3.04304790
-2.54584408 0.36455536 3.35392570
-2.54759884 0.56023943 3.13446856
-2.54658079 0.44691658 3.26149416
-2.54843664 0.65304828 3.03062010
-1.60545123 0.69806576 3.04248524
-2.54769731 0.57064450 3.12301350
-2.54668713 0.45744348 3.25014687
-2.54779005 0.58095312 3.11147118
-2.54677987 0.46774387 3.23859835
-2.54593039 0.37475121 3.34228230
-2.54787827 0.59117579 3.09985304
-2.54601812 0.38497257 3.33066273
-2.54686737 0.47796190 3.22697449
-2.54797077 0.60147929 3.08830595
-2.54697585 0.48852515 3.21566105
-2.54611063 0.39527762 3.31911707
-2.54706812 0.49883473 3.20411968
-2.54715037 0.50896454 3.19241858
-2.54724312 0.51926959 3.18087292
-1.58432543 0.44958818 3.33913946
-1.77293444 0.35783768 3.42880106
-1.58553243 0.57335460 3.20069408
-1.58457601 0.47021401 3.31606436
-1.58558393 0.59398794 3.17762375
-1.74201596 0.35898185 3.42963839
-1.58478355 0.49084127 3.29298925
-1.58562827 0.61462140 3.15455341
-1.71109629 0.36002529 3.43058825
-1.58497882 0.51146960 3.26991606
-1.58514738 0.53209829 3.24684191
-1.68017685 0.36101592 3.43159723
-1.64925134 0.36144829 3.43323040
-1.58537567 0.55272508 3.22376728
-1.61833704 0.36306143 3.43354321
-1.58743596 0.43713748 3.32803392
-1.58856738 0.56111038 3.18977213
-1.58874714 0.58162546 3.16659737
-1.58763409 0.45795405 3.30512810
-1.58891487 0.60194921 3.14325094
-1.58781719 0.47852039 3.28199911
-1.58800590 0.49919772 3.25896883
-1.58819389 0.51984107 3.23590899
-1.58838129 0.54049098 3.21285391
-1.59084249 0.56473696 3.17227364
-1.59105790 0.58528066 3.14912462
-1.58594465 0.42986774 3.34643221
-1.82129908 0.34620905 3.41912603
-1.59112310 0.60592198 3.12606096
-1.58760357 0.61966896 3.13417101
-1.72570896 0.34555423 3.41788244
-1.69478929 0.34658957 3.41884089
-1.66386735 0.34734643 3.42011118
-1.63294911 0.34849107 3.42094755
-1.61078429 0.35358524 3.42141628
-1.59052265 0.54413843 3.19537306
-2.51578450 0.35281396 3.40680933
-2.10138893 0.70069671 3.04626131
-2.47240877 0.68654311 3.03668928
-2.09828305 0.35710275 3.43058968
-2.52001333 0.63190007 3.09451818
-2.51836586 0.46687973 3.27911329
-2.37654924 0.34671509 3.42315674
-1.82312441 0.71127772 3.05347824
-2.11374187 0.35650611 3.43019915
-2.11684847 0.70011377 3.04585409
-2.48786736 0.68584681 3.03640938
-2.51602936 0.35347450 3.40605307
-2.52027416 0.64220846 3.08297682
-2.51836586 0.47719800 3.26757860
-2.39200878 0.34610224 3.42278385
-1.83858395 0.71070135 3.05306387
-2.08282328 0.35767603 3.43100691
-2.08593035 0.70129180 3.04665327
-2.45694995 0.68714452 3.03707552
-2.51825857 0.36370683 3.39446163
-2.52099395 0.65249801 3.07142353
-2.51851869 0.48750961 3.25604057
-2.36108971 0.34731698 3.42354202
-1.80766511 0.71187103 3.05387306
-2.06736350 0.35815549 3.43152952
-2.07047129 0.70186758 3.04706812
-2.51859665 0.37401223 3.38291788
-2.44149041 0.68775678 3.03744793
-2.52145338 0.66279876 3.05987692
-2.51859951 0.49782419 3.24450302
-2.34563112 0.34790361 3.42394352
-1.79220676 0.71246099 3.05427122
-2.05190420 0.35874832 3.43192482
-2.05501151 0.70244873 3.04747677
-2.51795769 0.38435340 3.37139940
-2.42603111 0.68835092 3.03784227
-2.52094889 0.67313516 3.04835606
-2.51883316 0.50813258 3.23296309
-2.33017111 0.34848309 3.42435455
-1.77674747 0.71304703 3.05467367
-2.03644514 0.35932422 3.43233967
-2.03955269 0.70304120 3.04787207
-2.41057229 0.68894100 3.03824139
-2.48476553 0.34277952 3.42014933
-2.51872134 0.67760551 3.04351139
-2.51901531 0.51844358 3.22142315
-2.31471205 0.34904695 3.42478228
-2.02098560 0.35994422 3.43270397
-1.76128864 0.71363485 3.05507469
-2.02409267 0.70363653 3.04826546
-2.39511299 0.68949819 3.03867626
-2.49957442 0.34378195 3.41801453
-2.51901627 0.52876091 3.20988941
-2.29925299 0.34961772 3.42520189
-1.74582875 0.71422756 3.05547047
-2.50331402 0.68400621 3.03741026
-2.00552797 0.36055696 3.43307686
-2.46930337 0.34315085 3.42079210
-2.00863457 0.70422459 3.04866505
-2.51910520 0.53907561 3.19835234
-2.28379345 0.35018516 3.42562628
-2.37965393 0.69007623 3.03908777
-2.50253201 0.68415403 3.03729868
-1.73037040 0.71481526 3.05587244
-1.99006808 0.36118138 3.43343687
-2.45384455 0.34374523 3.42118692
-1.99317503 0.70481408 3.04906464
-2.51908970 0.54939365 3.18681860
-2.26833391 0.35075033 3.42605209
-2.36419392 0.69065785 3.03949642
-1.71491075 0.71539438 3.05628252
-1.97461021 0.36183929 3.43375921
-1.97771633 0.70540810 3.04945850
-2.43838501 0.34433830 3.42158127
-2.34873557 0.69124961 3.03989220
-2.25287509 0.35131848 3.42647552
-1.95915055 0.36240327 3.43418694
-1.69945192 0.71597433 3.05669212
-1.96225691 0.70599568 3.04986000
-2.42292643 0.34489501 3.42201710
-2.33327532 0.69184160 3.04028845
-2.23741531 0.35188949 3.42689562
-1.68399274 0.71657038 3.05708361
-1.94369221 0.36299741 3.43458080
-2.40746737 0.34549415 3.42240477
-1.94679809 0.70657134 3.05027437
-2.22195625 0.35247648 3.42729712
-2.31781721 0.69243181 3.04068708
-1.92823184 0.36356688 3.43500280
-1.66853380 0.71715832 3.05748463
-1.93133867 0.70716631 3.05066776
-2.50023937 0.34390211 3.41783476
-2.20649672 0.35303712 3.42772818
-2.30235672 0.69300568 3.04110336
-1.91277432 0.36419225 3.43536139
-1.65307403 0.71775055 3.05788088
-1.91587961 0.70775557 3.05106688
-2.28689837 0.69357800 3.04152203
-1.89731348 0.36474299 3.43580437
-2.19103909 0.35364842 3.42810297
-1.90042043 0.70834088 3.05147076
-2.51785421 0.39467597 3.35986805
-1.58293223 0.64690804 3.14187908
-2.27143884 0.69418037 3.04190636
-2.17557907 0.35419393 3.42855120
-2.51771808 0.40499818 3.34833717
-2.51919842 0.55970776 3.17528105
-1.58270538 0.65723467 3.13035011
-2.16011953 0.35478258 3.42895126
-1.88185537 0.36528897 3.43625212
-2.25598049 0.69479668 3.04227591
-2.51788330 0.41530991 3.33679867
-2.51925421 0.57002258 3.16374540
-1.58263350 0.66755509 3.11881781
-2.14466047 0.35540497 3.42931318
-1.86639535 0.36588705 3.43664122
-2.24052095 0.69538236 3.04267883
-2.51817560 0.42561650 3.32525682
-2.51928329 0.58033967 3.15220976
-1.58196938 0.67789817 3.10730028
-1.85093570 0.36638558 3.43714190
-2.22506213 0.69596970 3.04308033
-2.12920189 0.35594332 3.42976999
-2.51820731 0.43593311 3.31372070
-2.51959825 0.59064484 3.14066744
-1.58113182 0.68824732 3.09578753
-1.83547568 0.36690307 3.43762207
-2.20960283 0.69657230 3.04346418
-2.51811290 0.44625413 3.30218935
-2.51978493 0.60095572 3.12912703
-1.58131373 0.69855881 3.08424807
-1.82001626 0.36740589 3.43811798
-2.51970029 0.61127663 3.11759520
-2.19414425 0.69717145 3.04385281
-2.51828861 0.45656526 3.29064941
-1.58284867 0.70881748 3.07267380
-1.80455709 0.36805701 3.43844795
-2.51974964 0.62159276 3.10605955
-2.17868447 0.69774938 3.04426527
-1.63761592 0.71832097 3.05830097
-1.88496196 0.70893645 3.05186319
-2.16322613 0.69833767 3.04466486
-1.62215602 0.71892512 3.05868387
-1.86950183 0.70952415 3.05226421
-2.14776587 0.69892776 3.04506397
-1.85404336 0.71011627 3.05266047
-1.59120810 0.71683133 3.06314278
-2.13230753 0.69952726 3.04545212
-1.60139513 0.71843004 3.06065798
-1.60669076 0.71884394 3.05983305
-2.51514530 0.33413851 3.40951920
-2.53174448 0.45767438 3.27099180
-2.53323269 0.62263823 3.08634472
-2.53184319 0.46809614 3.25955057
-2.53062534 0.34270775 3.39654589
-2.53333139 0.63304555 3.07489061
-2.53194284 0.47849703 3.24809170
-2.53082514 0.35475051 3.38655567
-2.53345656 0.64388371 3.06382275
-2.53249407 0.54026389 3.17876482
-2.53203559 0.48881710 3.23655939
-2.53093863 0.36540818 3.37532568
-2.53355265 0.65424943 3.05233192
-2.53258324 0.55050492 3.16716146
-2.53214359 0.49936485 3.22523212
-2.53099871 0.37517035 3.36329508
-2.53362393 0.66419852 3.04046917
-2.53267336 0.56076920 3.15558100
-2.50020146 0.34315777 3.41746140
-2.53276229 0.57100666 3.14397478
-2.53223825 0.50970316 3.21371603
-2.51819754 0.67409921 3.02843618
-2.53287029 0.58156645 3.13265753
-2.53231835 0.51978827 3.20197487
-2.50327492 0.68346250 3.03668642
-2.53296614 0.59191346 3.12115002
-2.53240919 0.53008294 3.19042015
-2.53108907 0.38544154 3.35171986
-2.53304410 0.60199261 3.10940361
-2.53117132 0.39557362 3.34002018
-2.53312898 0.61216331 3.09773779
-2.53127384 0.40604663 3.32862473
-2.53137875 0.41653824 3.31724739
-2.53146553 0.42675757 3.30562496
-2.53154421 0.43683159 3.29387379
-2.53164434 0.44726920 3.28244638
-2.10209465 0.71222937 3.05655670
-2.49661660 0.52052712 3.24386454
-2.09898710 0.36848164 3.44105816
-2.49722958 0.58240986 3.17464113
-2.47685862 0.69668007 3.04828930
-1.82383060 0.72281551 3.06376791
-2.49607086 0.40705383 3.37075806
-2.11755323 0.71163630 3.05616140
-2.49673319 0.53084087 3.23232603
-2.47002125 0.35603952 3.42957211
-2.11444616 0.36792552 3.44062185
-2.49735689 0.59272325 3.16310310
-2.47310495 0.69707763 3.04810047
-1.83928943 0.72222936 3.06336498
-2.49617863 0.41736674 3.35922050
-2.08663559 0.71282256 3.05695200
-2.47403669 0.35630322 3.42900229
-2.49673533 0.54115820 3.22079229
-2.08352757 0.36906612 3.44146252
-2.49686527 0.60305953 3.15158224
-2.45765114 0.69826305 3.04783440
-1.80837083 0.72340024 3.06417227
-2.49573898 0.42770159 3.34769726
-2.45455408 0.35563624 3.43108130
-2.07117748 0.71340668 3.05735683
-2.49690223 0.55147004 3.20925331
-2.06806898 0.36962962 3.44189119
-2.49681473 0.61337924 3.14004803
-2.44219446 0.69917488 3.04787207
-1.79291248 0.72398353 3.06457853
-2.49532104 0.43803501 3.33617401
-2.05571651 0.71399057 3.05776215
-2.43908978 0.35581636 3.43193865
-2.49686360 0.56178844 3.19772005
-2.05260825 0.37017822 3.44233561
-2.49731588 0.62367749 3.12850094
-2.42673683 0.69988203 3.04813957
-1.77745295 0.72456908 3.06498194
-2.49546242 0.44834757 3.32463598
-2.04025865 0.71457410 3.05816793
-2.42363167 0.35638213 3.43236399
-2.03714991 0.37074745 3.44275713
-2.49790025 0.63397300 3.11695099
-2.41127777 0.70043826 3.04857588
-2.37725568 0.35832953 3.43336105
-2.49585724 0.45864987 3.31309128
-1.76199389 0.72516096 3.06537819
-2.02479887 0.71516955 3.05856085
-2.40817261 0.35705304 3.43267250
-2.02169085 0.37134349 3.44314909
-2.49810696 0.64428270 3.10541201
-2.39581871 0.70102048 3.04898357
-2.39271545 0.35772085 3.43298340
-1.74653435 0.72575045 3.06577778
-2.49593019 0.46896517 3.30155468
-2.00934005 0.71574998 3.05896950
-2.00623226 0.37194550 3.44353390
-2.36179519 0.35890853 3.43377256
-1.73107576 0.72633862 3.06617689
-2.38035917 0.70160627 3.04938650
-2.49601078 0.47927988 3.29001856
-2.49876499 0.65457559 3.09385967
-2.48550916 0.35854626 3.42570925
-1.99388063 0.71633554 3.05937338
-1.99077201 0.37250376 3.44396877
-2.34633708 0.35950315 3.43416548
-1.71561623 0.72693026 3.06657457
-2.49477577 0.36583233 3.41692972
-2.36489868 0.70218050 3.04980326
-2.49962831 0.66486001 3.08230305
-1.97842133 0.71693265 3.05976343
-2.49602509 0.48959708 3.27848291
-1.97531378 0.37313890 3.44431639
-2.33087730 0.36006784 3.43459225
-2.49715805 0.37605941 3.40533400
-1.70015764 0.72750962 3.06698513
-2.34944081 0.70278656 3.05018377
-1.96296203 0.71752107 3.06016493
-2.50032043 0.67515194 3.07075024
-2.49608469 0.49991214 3.26694727
-1.95985508 0.37383008 3.44460154
-2.31541848 0.36064053 3.43500996
-1.68469775 0.72809100 3.06739330
-2.33398151 0.70339036 3.05056667
-2.49745083 0.38636601 3.39379120
-2.50015759 0.68547559 3.05922031
-2.49618292 0.51022649 3.25540972
-1.94750345 0.71811199 3.06056118
-1.94439673 0.37446213 3.44495296
-2.29995823 0.36118865 3.43545580
-1.66923892 0.72867846 3.06779480
-2.49645376 0.39672112 3.38228273
-2.31852269 0.70398998 3.05095482
-2.48854542 0.69430935 3.05013990
-1.93204415 0.71869886 3.06096315
-1.92893708 0.37507164 3.44533014
-2.28449965 0.36172616 3.43591213
-1.65377951 0.72927856 3.06818199
-2.30306292 0.70456505 3.05136967
-1.91658497 0.71928751 3.06136322
-1.91347873 0.37570941 3.44567490
-2.26903915 0.36226892 3.43636370
-1.90112579 0.71987438 3.06176567
-2.28760386 0.70511949 3.05180693
-1.58205140 0.65849137 3.15222740
-1.89801896 0.37622094 3.44616127
-2.25358033 0.36282194 3.43680382
-2.27214384 0.70571601 3.05219936
-1.58169723 0.66882253 3.14070129
-1.88256001 0.37674785 3.44663048
-2.23812032 0.36336744 3.43725300
-1.58213294 0.67912364 3.12915611
-2.49694777 0.57210338 3.18618298
-2.25668573 0.70631230 3.05259037
-1.86709917 0.37722969 3.44714975
-2.22266150 0.36393738 3.43767309
-2.24122620 0.70689940 3.05299282
-1.85163987 0.37777901 3.44759321
-1.58199775 0.68944645 3.11762428
-2.20720100 0.36450958 3.43809175
-1.83618057 0.37834978 3.44801378
-2.22576690 0.70750380 3.05337429
-2.19174290 0.36505485 3.43854046
-1.58122158 0.69979334 3.10611057
-1.82072091 0.37885571 3.44850636
-2.17628336 0.36562741 3.43895817
-2.21030831 0.70810246 3.05376339
-1.58134913 0.71010637 3.09457254
-1.80526161 0.37946510 3.44888353
-2.16082430 0.36618328 3.43939495
-2.19484949 0.70869517 3.05415916
-1.58260596 0.72037613 3.08300543
-2.14536476 0.36678529 3.43977976
-1.88566720 0.72046351 3.06216478
-2.17939019 0.70929062 3.05455160
-1.63832092 0.72986829 3.06858063
-2.12990570 0.36736143 3.44019413
-1.87020743 0.72105610 3.06256056
-2.16393113 0.70987272 3.05495930
-1.62286139 0.73047328 3.06896257
-1.85474873 0.72164667 3.06295872
-2.14847136 0.71045947 3.05536175
-1.59192061 0.72912788 3.07258415
-1.59737456 0.73013222 3.07108784
-2.13301301 0.71105075 3.05575752
-1.60739982 0.73072112 3.06974363
-1.78980267 0.37998652 3.44935846
-1.77434254 0.38056445 3.44976997
-1.75888383 0.38114095 3.45018339
-1.74342430 0.38176107 3.45054865
-1.72796667 0.38243997 3.45084810
-1.71250701 0.38299048 3.45129061
-1.69704711 0.38346386 3.45181990
-1.68158555 0.38389993 3.45239067
-2.51579952 0.35363007 3.40619087
-2.51724815 0.50914967 3.23385954
-2.51622868 0.39579678 3.36085701
-2.48831177 0.69214272 3.04432583
-2.51780605 0.57100797 3.16461468
-2.51734447 0.51951706 3.22236967
-2.51597357 0.36525297 3.39582491
-2.51631594 0.40600228 3.34922361
-2.51789808 0.58130562 3.15306187
-2.50228262 0.51781332 3.24148417
-2.50127506 0.40465879 3.36865902
-2.51607656 0.37572634 3.38442993
-2.50284958 0.57981634 3.17236805
-2.50237775 0.52815950 3.22997475
-2.50136900 0.41497922 3.35712814
-2.51614547 0.38564503 3.37254000
-2.50294495 0.59016371 3.16086006
-2.51761961 0.55037868 3.18768692
-2.51743698 0.52981246 3.21081686
-2.51640773 0.41630697 3.33767748
-2.51771450 0.56071126 3.17616606
-2.51799560 0.59168482 3.14158344
-2.48522997 0.35170889 3.42498541
-2.50247192 0.53848529 3.21844912
-2.50144720 0.42505312 3.34537554
-2.50302362 0.60023963 3.14911079
-2.51752901 0.54011536 3.19926882
-2.51809120 0.60204196 3.13008499
-2.51650524 0.42668855 3.32620144
-2.50086546 0.36280000 3.41426802
-2.50256634 0.54881644 3.20692682
-2.50152969 0.43518257 3.33367443
-2.51818132 0.61230981 3.11850691
-2.50102019 0.37411976 3.40363121
-2.50311470 0.61052155 3.13754463
-2.50265837 0.55911040 3.19537258
-2.51827621 0.62264633 3.10698938
-2.51659727 0.43698454 3.31464767
-2.50112391 0.38460100 3.39224291
-2.50322151 0.62104642 3.12619686
-2.51837444 0.63303375 3.09551907
-2.50162673 0.44555759 3.32219124
-2.50119328 0.39452279 3.38035583
-2.50332832 0.63158381 3.11485863
-2.50275421 0.56945729 3.18386412
-2.51668787 0.44725382 3.30307150
-2.50342083 0.64189553 3.10332012
-2.50173378 0.45609391 3.31085348
-2.51678276 0.45759106 3.29155445
-2.51847529 0.64348698 3.08410597
-2.51687574 0.46789002 3.28000450
-2.51858854 0.65411949 3.07285404
-2.50182390 0.46636200 3.29927492
-2.51869631 0.66466010 3.06151915
-2.50191498 0.47662735 3.28769493
-2.51876497 0.67458904 3.04963875
-2.51696420 0.47813463 3.26840496
-2.51705885 0.48847377 3.25689125
-2.50352669 0.65241635 3.09196806
-2.51715183 0.49878883 3.24535370
-2.50363374 0.66294730 3.08062553
-2.50373363 0.67338240 3.06919575
-2.50200295 0.48685765 3.27608252
-2.50382400 0.68363762 3.05760670
-2.50209236 0.49712420 3.26450348
-2.50218630 0.50744069 3.25296783
-1.58258700 0.59656489 3.22142029
-1.58083773 0.43154836 3.40601778
-1.65066218 0.38445818 3.45388269
-1.58275437 0.61719358 3.19834709
-1.58145797 0.45216012 3.38293314
-1.58155775 0.47279167 3.35986137
-1.58274579 0.63782930 3.17527771
-1.61974323 0.38560069 3.45472145
-1.58183706 0.49341631 3.33678532
-1.59914505 0.38958120 3.45168161
-1.58216178 0.51403952 3.31370735
-1.58890700 0.39581764 3.44541073
-1.58231568 0.53466904 3.29063463
-1.58162498 0.41088295 3.42906666
-1.58230388 0.55530465 3.26756573
-1.58236814 0.57593763 3.24449492
-1.58265781 0.42793775 3.38204575
-1.58375430 0.63862300 3.15108490
-1.79179144 0.37040138 3.44057322
-1.75832081 0.37205672 3.44178772
-1.72740221 0.37323952 3.44258213
-1.69648278 0.37427890 3.44353676
-1.59505010 0.37899828 3.43281126
-1.58264625 0.40730298 3.40511513
-1.88637221 0.73197865 3.07247877
-2.38106441 0.71315789 3.05965900
-2.13371849 0.72257769 3.06605816
-2.45576739 0.45108831 3.34752417
-2.31612444 0.37216163 3.44531727
-2.43981075 0.36895454 3.44043684
-2.45684433 0.61613035 3.16294432
-2.14917731 0.72198832 3.06565952
-2.39652395 0.71250212 3.05933475
-2.45665026 0.57486713 3.20908737
-2.45568371 0.46140933 3.33599138
-1.90183115 0.73139608 3.07207203
-2.33158302 0.37159824 3.44488859
-2.44131422 0.36909652 3.44017553
-2.45703316 0.62644076 3.15140390
-2.11825895 0.72316480 3.06646109
-2.36560559 0.71373415 3.06007385
-2.45666218 0.58518410 3.19755220
-2.45545936 0.47173584 3.32446384
-1.87091267 0.73256969 3.07287693
-2.30066395 0.37273097 3.44573879
-2.42434168 0.36838293 3.44213486
-2.45685816 0.63676536 3.13987446
-2.10280013 0.72375524 3.06685877
-2.35014629 0.71432269 3.06047392
-2.45675826 0.59549809 3.18601513
-2.45566440 0.48204565 3.31292295
-1.85545409 0.73315477 3.07327986
-2.28520513 0.37328815 3.44617414
-2.40887928 0.36866868 3.44287300
-2.45717883 0.64707088 3.12833118
-2.08734035 0.72434449 3.06725788
-2.33468676 0.71490502 3.06088114
-2.45668650 0.60581899 3.17448235
-2.45612097 0.49234569 3.30137682
-1.83999407 0.73374832 3.07367516
-2.26974487 0.37382948 3.44662666
-2.39341950 0.36915278 3.44339037
-2.45785427 0.65736294 3.11677980
-2.07188177 0.72493184 3.06765938
-2.31922817 0.71551573 3.06125641
-1.82453609 0.73433471 3.07407713
-2.25428605 0.37438297 3.44706583
-2.45529985 0.37161493 3.43640280
-2.45668268 0.52458048 3.26530170
-2.05642271 0.72552156 3.06805897
-2.45794868 0.66461146 3.10866976
-2.30376887 0.71609378 3.06166840
-1.80907631 0.73492289 3.07447767
-2.23882627 0.37492514 3.44751883
-2.46146464 0.37864816 3.42811775
-2.45724487 0.53357339 3.25520992
-2.45847988 0.66765702 3.10522842
-2.04096365 0.72611165 3.06845760
-2.28830957 0.71669054 3.06205988
-2.22336721 0.37548780 3.44794750
-1.79361784 0.73549891 3.07489204
-2.45983076 0.38902760 3.41662598
-2.45628929 0.50265753 3.28983784
-2.46002769 0.67791510 3.09365416
-2.02550411 0.72669578 3.06886148
-2.27285004 0.71727300 3.06246567
-1.77815795 0.73608208 3.07529783
-2.20790720 0.37604451 3.44838285
-2.45612979 0.51298046 3.27830744
-2.01004601 0.72727704 3.06926966
-2.25739121 0.71785533 3.06287384
-2.19244862 0.37660122 3.44881916
-1.76269948 0.73667085 3.07569838
-2.45639038 0.52328873 3.26676607
-1.99458575 0.72786021 3.06967688
-2.24193144 0.71843421 3.06328392
-2.17698884 0.37716234 3.44924927
-2.45931411 0.39936531 3.40510416
-1.74723959 0.73725629 3.07610178
-2.45728874 0.54389000 3.24367380
-1.97912776 0.72845066 3.07007456
-2.16152978 0.37771308 3.44969225
-2.22647333 0.71902144 3.06368542
-2.45713329 0.40976572 3.39362717
-1.73178089 0.73784959 3.07649660
-2.45693588 0.55256248 3.23400211
-1.96366775 0.72903752 3.07047653
-2.14607000 0.37829638 3.45009804
-2.21101332 0.71961379 3.06408167
-2.46158910 0.68817401 3.08207941
-1.71632147 0.73844087 3.07689333
-2.45661259 0.55423307 3.23215723
-1.94820845 0.72962916 3.07087278
-2.13061142 0.37889254 3.45048952
-2.45642662 0.42011070 3.38211060
-2.19555569 0.72020483 3.06447840
-2.46424317 0.69839048 3.07047606
-1.70086277 0.73902905 3.07729435
-2.11515188 0.37949014 3.45088100
-2.45654511 0.56455350 3.22062349
-1.93274915 0.73022091 3.07126999
-2.45615768 0.43043804 3.37058306
-2.18009615 0.72080195 3.06486988
-1.68540299 0.73960161 3.07771206
-2.09969282 0.38003147 3.45133352
-2.45830965 0.70453668 3.06401014
-1.91729057 0.73081172 3.07166767
-2.45593834 0.44076419 3.35905409
-2.16463661 0.72139955 3.06525946
-1.66994452 0.74017942 3.07812405
-2.08423305 0.38062942 3.45172262
-2.37795973 0.36976767 3.44376135
-2.45600009 0.44912732 3.34970093
-2.44288278 0.70869172 3.06042051
-1.65448523 0.74078941 3.07850122
-2.06877422 0.38117337 3.45217276
-2.36250067 0.37039113 3.44412279
-1.88326502 0.38822019 3.45699167
-2.43725133 0.70973504 3.05964088
-2.05331397 0.38171947 3.45262051
-1.58276892 0.67001259 3.16253328
-2.34704161 0.37099433 3.44450617
-1.89872301 0.38764775 3.45657444
-2.42743731 0.71080017 3.05912113
-2.03785515 0.38226414 3.45306969
-1.58232760 0.68034720 3.15101004
-1.86780393 0.38872850 3.45748234
-2.41198015 0.71168423 3.05919266
-2.02239513 0.38281679 3.45350981
-1.58265686 0.69065237 3.13946724
-1.85234559 0.38932633 3.45787191
-2.00693631 0.38339221 3.45392513
-1.83688545 0.38986349 3.45832920
-1.58285856 0.70096266 3.12792683
-1.99147737 0.38400960 3.45429277
-1.58262134 0.71128917 3.11639929
-1.82142639 0.39039981 3.45878839
-1.97601891 0.38462472 3.45466280
-1.80596626 0.39091563 3.45926905
-1.58302033 0.72159207 3.10485411
-1.96055937 0.38526201 3.45500851
-1.58370519 0.73188293 3.09330177
-1.79050708 0.39141107 3.45977402
-1.94510174 0.38589478 3.45535946
-1.77504718 0.39198518 3.46018982
-1.63902700 0.74139428 3.07888174
-1.92964149 0.38650155 3.45573950
-1.62356687 0.74197292 3.07929325
-1.75958884 0.39259303 3.46056843
-1.91418374 0.38710308 3.45612526
-1.59262693 0.74074841 3.08278036
-1.74412966 0.39323378 3.46091080
-1.59756160 0.74167395 3.08140755
-1.72867155 0.39389729 3.46122694
-1.60810530 0.74225509 3.08003664
-1.71321166 0.39448380 3.46162939
-1.69775176 0.39490509 3.46221590
-1.68229115 0.39535582 3.46277046
-2.48790550 0.60638809 3.15448523
-2.47132444 0.45679820 3.33199596
-2.47011375 0.35789561 3.43039370
-2.48754787 0.56538689 3.20086145
-2.48799872 0.61670709 3.14295197
-2.47141075 0.46698761 3.32034779
-2.45501423 0.36435437 3.43604612
-2.48763943 0.57566917 3.18929577
-2.45610476 0.46129107 3.33588934
-2.48809123 0.62700891 3.13140488
-2.45619297 0.47151804 3.32427454
-2.48773766 0.58606720 3.17783403
-2.47271538 0.61138606 3.15883064
-2.48579121 0.36965835 3.42027807
-2.47235656 0.57035828 3.20518351
-2.48660040 0.46200371 3.31601429
-2.47281432 0.62178719 3.14737082
-2.47244549 0.58060622 3.19358683
-2.48669767 0.47237384 3.30452728
-2.48591805 0.38052619 3.40923643
-2.45749998 0.61594689 3.16278553
-2.45712996 0.57473385 3.20897198
-2.45759487 0.62628496 3.15126944
-2.48679304 0.48272407 3.29302311
-2.47064257 0.37532783 3.42522383
-2.45722151 0.58502591 3.19741440
-2.47289705 0.63193214 3.13568354
-2.47072124 0.38540649 3.41347694
-2.47150755 0.47737432 3.30887508
-2.47254825 0.59106779 3.18218231
-2.45768428 0.63652599 3.13966751
-2.45731592 0.59534919 3.18588686
-2.48601294 0.39086652 3.39772272
-2.45628786 0.48186421 3.31276608
-2.48782301 0.59625626 3.16618490
-2.48607874 0.40072703 3.38578033
-2.47160244 0.48771071 3.29735851
-2.48818731 0.63737082 3.11991024
-2.47082400 0.39587212 3.40207434
-2.47262883 0.60117686 3.17046070
-2.45638704 0.49227071 3.30131197
-2.48829079 0.64785659 3.10852718
-2.45740628 0.60562372 3.17431355
-2.47088337 0.40564239 3.39005184
-2.47299170 0.64227104 3.12416792
-2.45601416 0.45102000 3.34746504
-2.45778036 0.64689934 3.12818289
-2.48615170 0.41071713 3.37395287
-2.47309661 0.65277076 3.11279774
-2.48688817 0.49306941 3.28151321
-2.48624849 0.42108274 3.36246252
-2.45788288 0.65735471 3.11677313
-2.47096252 0.41571665 3.37829971
-2.48698378 0.50342190 3.27001143
-2.47106457 0.42617571 3.36689329
-2.47170019 0.49810171 3.28588963
-2.48634076 0.43139315 3.35092163
-2.45648146 0.50260448 3.28979254
-2.48839951 0.65842319 3.09721518
-2.48641634 0.44140816 3.33911800
-2.47179270 0.50840044 3.27433968
-2.48851442 0.66907561 3.08598185
-2.47115731 0.43648696 3.35535288
-2.45657015 0.51285315 3.27819729
-2.47319698 0.66321206 3.10137367
-2.47123122 0.44648504 3.34353399
-2.48707867 0.51376534 3.25850010
-2.47331429 0.67390919 3.09018040
-2.48650932 0.45171726 3.32757568
-2.48718381 0.52427661 3.24714041
-2.48863220 0.67979479 3.07480669
-2.47188902 0.51876259 3.26284504
-2.48874569 0.69045615 3.06358099
-2.45666671 0.52320898 3.26669741
-2.47342372 0.68449235 3.07888317
-2.47199345 0.52926099 3.25147343
-2.47357178 0.69569445 3.06814098
-2.48727679 0.53458714 3.23559952
-2.47316837 0.69790530 3.04935551
-2.48736048 0.54473865 3.22391748
-2.45795965 0.70256877 3.05340195
-2.47208667 0.53956962 3.23993111
-2.44274807 0.70720971 3.05742741
-2.47216845 0.54969501 3.22822618
-2.45694566 0.55413651 3.23207378
-2.48745441 0.55506730 3.21239281
-2.47226048 0.55999804 3.21667814
-2.45703602 0.56441319 3.22050238
-2.13442397 0.73408556 3.07638311
-2.39413404 0.38168013 3.45257425
-2.40923882 0.58821964 3.22064161
-2.31682825 0.38364506 3.45566845
-2.39278984 0.72297561 3.07111883
-2.40956306 0.46439528 3.35904741
-1.88707781 0.74350131 3.08278608
-2.40952134 0.60884464 3.19756508
-2.40136409 0.38216579 3.45153618
-2.14988256 0.73349118 3.07598925
-2.40934753 0.59853363 3.20910406
-2.33228731 0.38301492 3.45531416
-2.39721370 0.72230065 3.07157040
-2.40930724 0.47472310 3.34751940
-1.90253651 0.74291098 3.08238792
-2.40977049 0.61915302 3.18602419
-2.30136919 0.38422394 3.45607948
-2.11896420 0.73468244 3.07677317
-2.42510271 0.38613307 3.44547606
-2.38176537 0.72413099 3.07058144
-2.40909982 0.48504829 3.33599091
-1.87161815 0.74407840 3.08319998
-2.41019917 0.62945390 3.17447853
-2.28591037 0.38481712 3.45647383
-2.42648220 0.39152813 3.43935013
-2.10350561 0.73527324 3.07717133
-2.36630774 0.72497129 3.07070112
-2.40888405 0.49537456 3.32446098
-1.85615945 0.74466586 3.08360100
-2.27045083 0.38539028 3.45689154
-2.41051626 0.63976002 3.16293573
-2.42516756 0.39324522 3.43752098
-2.08804607 0.73585916 3.07757378
-2.35085058 0.72571421 3.07092762
-1.84070003 0.74525154 3.08400393
-2.40863585 0.50570154 3.31293344
-2.25499153 0.38596177 3.45731115
-2.41056442 0.65007567 3.15140009
-2.40960789 0.38281047 3.45025015
-2.33539248 0.72645831 3.07115412
-2.07258701 0.73644388 3.07797956
-2.23953223 0.38653207 3.45773172
-1.82524121 0.74584484 3.08439875
-2.41083050 0.66038334 3.13985825
-2.42017412 0.40208578 3.42797995
-2.05712795 0.73703599 3.07837534
-2.40870047 0.51601684 3.30139732
-2.31993389 0.72702241 3.07158184
-2.22407365 0.38711381 3.45813942
-1.80978131 0.74643779 3.08479452
-2.41148615 0.67067599 3.12830687
-2.20861411 0.38768554 3.45855904
-2.04166937 0.73762512 3.07877398
-2.40882730 0.52632964 3.28985977
-2.41582155 0.41256917 3.41655731
-2.30447435 0.72761250 3.07198000
-1.79432321 0.74701881 3.08520269
-2.19315577 0.38826728 3.45896578
-2.02620912 0.73821020 3.07917881
-2.41266775 0.42300665 3.40510511
-2.41228104 0.67846203 3.11954784
-2.40897179 0.53664184 3.27832079
-2.28901529 0.72819734 3.07238483
-1.77886355 0.74760616 3.08560324
-2.17769527 0.38883340 3.45939112
-2.41297030 0.68093729 3.11673355
-2.27355528 0.72879434 3.07277489
-2.40921974 0.54695010 3.26678038
-2.01075101 0.73879826 3.07957935
-2.16223645 0.38938296 3.45983458
-1.76340508 0.74818587 3.08601332
-2.41067171 0.43340075 3.39362192
-2.41528416 0.69116688 3.10513973
-2.14677596 0.38994539 3.46026468
-1.99529088 0.73938620 3.07998037
-2.25809693 0.72938037 3.07317781
-2.40928602 0.55726540 3.25524378
-1.74794507 0.74876845 3.08642101
-2.41057777 0.44372106 3.38209009
-2.41852093 0.70136178 3.09352112
-1.97983289 0.73997152 3.08038378
-2.24263668 0.72997332 3.07357359
-2.13131762 0.39050102 3.46070194
-2.40920591 0.56758595 3.24371147
-1.73248637 0.74936295 3.08681440
-2.41030359 0.45404971 3.37056208
-2.42234182 0.71153367 3.08188772
-1.96437263 0.74055278 3.08079195
-2.11585808 0.39108133 3.46111107
-2.22717810 0.73054886 3.07398748
-1.71702695 0.74995422 3.08721113
-2.40918493 0.57790470 3.23217726
-2.41026688 0.45565069 3.36877537
-2.10039878 0.39162946 3.46155643
-2.41264677 0.71891284 3.07430172
-2.21171880 0.73113835 3.07438707
-1.94891453 0.74113512 3.08119917
-2.08493900 0.39220166 3.46197510
-1.70156848 0.75054634 3.08760738
-1.93345487 0.74173200 3.08158970
-2.37866688 0.38149929 3.45383501
-2.19626093 0.73172903 3.07478476
-2.06947994 0.39274371 3.46242762
-1.68610871 0.75113320 3.08800936
-1.91799617 0.74232149 3.08198929
-2.36320686 0.38196993 3.45436716
-2.18080091 0.73230100 3.07520294
-2.05402040 0.39331448 3.46284723
-2.34774685 0.38244736 3.45489168
-1.67064953 0.75170863 3.08842516
-2.03856111 0.39386261 3.46329165
-2.16534233 0.73289287 3.07559919
-1.88397002 0.39974046 3.46730232
-1.65519035 0.75231612 3.08880281
-2.02310228 0.39445221 3.46369076
-1.89942908 0.39918303 3.46686745
-1.86850917 0.40026164 3.46777773
-1.58399475 0.68151557 3.17282677
-2.00764275 0.39503443 3.46409893
-1.85305119 0.40082717 3.46820402
-1.58396828 0.69183457 3.16129255
-1.99218345 0.39562023 3.46450138
-1.83759117 0.40137041 3.46865416
-1.58381534 0.70215786 3.14976263
-1.97672474 0.39622426 3.46488428
-1.82213295 0.40195549 3.46905899
-1.96126509 0.39678431 3.46531630
-1.58394361 0.71247101 3.13822460
-1.80667233 0.40252781 3.46947670
-1.58370984 0.72279727 3.12669659
-1.94580698 0.39741433 3.46567011
-1.79121423 0.40315056 3.46983862
-1.93034744 0.39801776 3.46605396
-1.58401608 0.73310375 3.11515331
-1.77575481 0.40373802 3.47024012
-1.91488910 0.39863098 3.46642637
-1.58495975 0.74338496 3.10359478
-1.76029563 0.40429926 3.47067118
-1.63973212 0.75293243 3.08917284
-1.74483621 0.40492725 3.47102690
-1.62427258 0.75353968 3.08955145
-1.72937751 0.40552318 3.47141886
-1.59332991 0.75200355 3.09338665
-1.71391821 0.40608454 3.47184896
-1.59898543 0.75316930 3.09169626
-1.60881102 0.75378323 3.09033775
-1.69845808 0.40647399 3.47247171
-1.68299699 0.40698850 3.47295427
-1.66753685 0.40739369 3.47356081
-1.58380532 0.66088772 3.19590092
-1.65207267 0.40745306 3.47455263
-1.58336580 0.67122221 3.18437719
-1.63661122 0.40771616 3.47531605
-1.62115479 0.40866804 3.47530985
-1.60571456 0.41131914 3.47340345
-1.60169816 0.41258252 3.47226572
-1.59032249 0.41935825 3.46546936
-1.58684421 0.42346561 3.46111584
-1.58240902 0.43395162 3.44969654
-1.58153415 0.44430292 3.43818474
-1.58188677 0.45460689 3.42664099
-1.58182347 0.46492732 3.41510773
-1.58207178 0.47523522 3.40356731
-2.44078636 0.45539188 3.35125065
-2.39712620 0.72130489 3.06965971
-2.44189453 0.57898498 3.21264935
-2.44087601 0.46564174 3.33965540
-2.44198871 0.58930373 3.20111609
-2.42556739 0.45989215 3.35515070
-2.43984461 0.36967874 3.44068384
-2.42685652 0.60402763 3.19339848
-2.42666912 0.58338237 3.21645784
-2.42565536 0.47012508 3.34354067
-2.42472243 0.37577271 3.44600964
-2.42695117 0.61436284 3.18188000
-2.42676306 0.59370983 3.20493221
-2.44096613 0.47591805 3.32808542
-2.41162252 0.60829437 3.19709063
-2.40948129 0.37992203 3.44959593
-2.44207954 0.59958875 3.18955326
-2.42574358 0.48036003 3.33193302
-2.41171741 0.61864448 3.18558502
-2.41143417 0.58764338 3.22014380
-2.45550299 0.38113201 3.43029022
-2.41033435 0.46418190 3.35886288
-2.42704868 0.62474477 3.17040443
-2.41152811 0.59796023 3.20860815
-2.45555234 0.39073467 3.41811752
-2.41042304 0.47442412 3.34726095
-2.41181469 0.62902021 3.17410374
-2.45561361 0.40051317 3.40610075
-2.44217300 0.60990345 3.17801666
-2.41051292 0.48468423 3.33567619
-2.45566750 0.41019905 3.39400291
-2.44226980 0.62027407 3.16653061
-2.44105864 0.48621798 3.31653500
-2.44033718 0.38651383 3.43497944
-2.44236612 0.63064384 3.15504265
-2.42583466 0.49063468 3.32036066
-2.44031906 0.39501929 3.42182493
-2.42714643 0.63513350 3.15893364
-2.42512560 0.39993191 3.42609406
-2.44115353 0.49654341 3.30500889
-2.44245768 0.64091980 3.14347219
-2.42592669 0.50092351 3.30880165
-2.44038320 0.40484643 3.40985155
-2.42723656 0.64539790 3.14735317
-2.42517424 0.40951550 3.41390324
-2.41060162 0.49492919 3.32407665
-2.41191077 0.63938153 3.16260862
-2.44043875 0.41454172 3.39776182
-2.41069031 0.50516248 3.31246853
-2.41200495 0.64970183 3.15107727
-2.42522907 0.41920710 3.40180969
-2.44255400 0.65129197 3.13198709
-2.45677137 0.53371012 3.25532818
-2.45574808 0.42029881 3.38227320
-2.42733312 0.65576816 3.13586521
-2.45583582 0.43052053 3.37065411
-2.44124556 0.50684583 3.29346085
-2.44265223 0.66169381 3.12052870
-2.45592475 0.44076872 3.35905743
-2.42601919 0.51122546 3.29725361
-2.42743182 0.66616726 3.12440538
-2.44051218 0.42453766 3.38593960
-2.44133973 0.51717353 3.28193665
-2.41210079 0.66006291 3.13958216
-2.42529202 0.42902637 3.38982916
-2.42611361 0.52156126 3.28573608
-2.44059849 0.43473577 3.37430000
-2.41220140 0.67049408 3.12815046
-2.41078353 0.51547503 3.30092955
-2.42538118 0.43927515 3.37823486
-2.41087866 0.52582395 3.28942442
-2.45798469 0.66781127 3.10536289
-2.44068956 0.44501925 3.36273432
-2.42547631 0.44961584 3.36672068
-2.44143534 0.52752566 3.27043295
-2.45810199 0.67852521 3.09418344
-2.42620707 0.53188920 3.27421093
-2.45823002 0.68940246 3.08315039
-2.44153500 0.53794217 3.25898790
-2.45835686 0.70026779 3.07210732
-2.42630005 0.54219544 3.26266766
-2.44276023 0.67224133 3.10920000
-2.41097212 0.53614259 3.27789068
-2.42754245 0.67676294 3.11311960
-2.41106558 0.54645038 3.26634884
-2.44287539 0.68290567 3.09797716
-2.42765641 0.68742073 3.10189056
-2.45686388 0.54401278 3.24378014
-2.44162655 0.54824090 3.24743700
-2.44299364 0.69363213 3.08680820
-2.42639303 0.55250037 3.25112200
-2.42777157 0.69809592 3.09067631
-2.44171333 0.55844319 3.23580074
-2.44314766 0.70493507 3.07615662
-2.42648315 0.56276083 3.23953772
-2.42794609 0.70973611 3.08032560
-2.41115832 0.55676079 3.25480795
-2.41125011 0.56705153 3.24325037
-2.42762685 0.71330845 3.06275797
-2.44180346 0.56870079 3.22421217
-2.41235113 0.71690392 3.06584835
-2.42657447 0.57304251 3.22797108
-2.41134214 0.57734358 3.23169279
-1.58391583 0.61961246 3.24203634
-1.58421493 0.64023662 3.21895933
-1.58275580 0.49584424 3.38048029
-1.58306301 0.51646817 3.35740376
-1.58337760 0.53709149 3.33432627
-1.58359289 0.55771875 3.31125212
-1.58353305 0.57835627 3.28818417
-1.58360553 0.59898889 3.26511288
-1.63604939 0.39877844 3.46675634
-1.60949159 0.40155029 3.46547556
-1.58312285 0.66332674 3.17385721
-1.58602071 0.41669476 3.45015144
-1.58165789 0.43505812 3.42992067
-1.66952443 0.39759159 3.46501875
-1.58161521 0.45569539 3.40685272
-1.88467586 0.41130483 3.47756100
-2.34711194 0.73626196 3.08262777
-1.85686481 0.75618720 3.09390736
-2.34846210 0.39510489 3.46392822
-2.35962772 0.56038451 3.27839041
-2.35976839 0.60165024 3.23224831
-2.00834918 0.40664959 3.47430038
-1.90013456 0.41074526 3.47712803
-2.33609295 0.73748708 3.08201218
-1.87232339 0.75560510 3.09350109
-2.35361338 0.39553046 3.46309853
-2.36027884 0.57067800 3.26683855
-2.36050415 0.61194038 3.22069454
-2.02380800 0.40606904 3.47389174
-1.86921561 0.41182363 3.47803926
-1.84140551 0.75676405 3.09432030
-2.33299494 0.39480305 3.46532345
-2.32063675 0.73833168 3.08212566
-2.36021519 0.58099771 3.25530624
-2.36035156 0.62226343 3.20916414
-1.99288940 0.40721893 3.47472239
-1.85375714 0.41241217 3.47843933
-2.30517864 0.73904002 3.08239269
-2.31753492 0.39523244 3.46590233
-1.82594633 0.75736606 3.09470558
-1.83829713 0.41296816 3.47887564
-2.35957336 0.59134042 3.24378777
-2.36032772 0.63258243 3.19762993
-1.97743130 0.40781164 3.47511768
-2.30207491 0.39577603 3.46635294
-2.28972101 0.73971152 3.08269930
-1.81048715 0.75795794 3.09510183
-1.82283819 0.41352916 3.47930717
-2.36101723 0.64287353 3.18607807
-1.96197093 0.40839672 3.47552109
-2.27426076 0.74027705 3.08312511
-2.28661633 0.39633501 3.46678543
-1.80737889 0.41411221 3.47971344
-1.79502821 0.75853896 3.09551096
-1.94651294 0.40901172 3.47589254
-2.36145449 0.65317512 3.17453194
-1.79192066 0.41475618 3.48005104
-2.27115631 0.39692962 3.46717834
-1.93105316 0.40960383 3.47628784
-2.36104274 0.66350794 3.16300869
-1.77956879 0.75912833 3.09591007
-1.77646053 0.41536045 3.48043394
-2.25880218 0.74089181 3.08349657
-2.37942195 0.39842141 3.45810032
-1.91559494 0.41020226 3.47667742
-2.36062813 0.67384160 3.15148401
-2.24334288 0.74148226 3.08389378
-2.38901162 0.40450203 3.45064592
-1.76410985 0.75971019 3.09631777
-1.76100206 0.41591835 3.48086834
-2.36295414 0.68407035 3.13988972
-2.36950827 0.43619668 3.41654825
-2.22788405 0.74205697 3.08430958
-2.36394262 0.39684999 3.46091700
-1.74865055 0.76029515 3.09672260
-1.74554205 0.41651821 3.48125553
-2.36435390 0.44233656 3.41003752
-2.21242404 0.74264956 3.08470488
-2.38088298 0.41512883 3.43932199
-1.73008347 0.41707397 3.48169327
-2.36661482 0.69243455 3.13028908
-1.73319197 0.76088953 3.09711552
-2.36125278 0.44682860 3.40522766
-1.71462357 0.41765702 3.48209858
-2.36737418 0.69422019 3.12824011
-2.19696617 0.74324548 3.08509636
-1.71773243 0.76147795 3.09751654
-2.37960219 0.41839123 3.43576336
-2.35907698 0.45722878 3.39374971
-1.69916427 0.41813099 3.48262691
-2.36759377 0.70452952 3.11670065
-2.18150616 0.74382377 3.08550882
-2.37638283 0.42561769 3.42790413
-2.35996580 0.46751285 3.38219166
-1.70227385 0.76207280 3.09790897
-1.68370342 0.41856515 3.48320007
-2.36023951 0.47782028 3.37065125
-2.16604733 0.74440253 3.08592033
-2.37111187 0.71471369 3.10507441
-1.68681431 0.76265812 3.09831190
-1.66824198 0.41884720 3.48394299
-2.25569749 0.39751005 3.46758699
-2.35963106 0.48816144 3.35913134
-2.15058756 0.74498582 3.08632612
-2.37834787 0.72475564 3.09335279
-1.65278077 0.41928649 3.48450947
-1.67135513 0.76323366 3.09872770
-2.24023795 0.39808822 3.46799946
-2.35863018 0.49851656 3.34762287
-1.65589571 0.76384902 3.09909725
-2.13512921 0.74556708 3.08673429
-2.36697507 0.73228848 3.08570957
-1.63732052 0.41965151 3.48516035
-2.22477913 0.39867425 3.46840286
-2.35868883 0.50883269 3.33608675
-2.11966991 0.74617040 3.08711767
-1.62186277 0.42050064 3.48526859
-2.35908079 0.51913500 3.32454252
-2.35154009 0.73548222 3.08319616
-2.20932007 0.39925766 3.46880817
-1.58526504 0.67238069 3.20618773
-1.60642481 0.42340040 3.48308325
-2.10421133 0.74677980 3.08749437
-2.35942292 0.52944016 3.31299877
-2.19386101 0.39984107 3.46921444
-1.58473969 0.68271863 3.19466639
-1.60435820 0.42402983 3.48252153
-2.08875132 0.74737144 3.08789206
-2.35954142 0.53975284 3.30146170
-2.17840195 0.40042353 3.46962070
-1.58540928 0.69301069 3.18311548
-1.59103489 0.43165469 3.47490931
-2.35912013 0.55008686 3.28993797
-2.16294289 0.40100193 3.47003269
-2.07329273 0.74795628 3.08829498
-1.58577549 0.70331454 3.17157030
-1.58824873 0.43496096 3.47140455
-2.14748335 0.40157020 3.47045517
-2.05783272 0.74854863 3.08869171
-1.58539510 0.71364665 3.16004658
-1.58350420 0.44545865 3.45999289
-2.13202429 0.40216184 3.47085190
-2.04237509 0.74912965 3.08909988
-1.58248854 0.45581496 3.44848442
-1.58533359 0.72396684 3.14851332
-2.11656499 0.40272093 3.47128487
-2.02691507 0.74971938 3.08949947
-1.58294153 0.46611512 3.43693829
-1.58524990 0.73428738 3.13698101
-2.10110569 0.40327525 3.47172356
-1.58244419 0.47645235 3.42541647
-2.01145601 0.75031340 3.08989334
-2.08564568 0.40387857 3.47210741
-1.58566523 0.74458933 3.12543488
-1.58268213 0.48676050 3.41387606
-1.99599707 0.75090337 3.09029150
-2.07018661 0.40441799 3.47256279
-1.58637953 0.75487983 3.11388254
-2.05472660 0.40493798 3.47303963
-1.98053837 0.75149333 3.09069014
-1.88778353 0.75501013 3.09310722
-1.64043736 0.76446235 3.09946966
-2.03926754 0.40546596 3.47350740
-1.90324175 0.75442290 3.09270573
-1.96507859 0.75207424 3.09109926
-1.62497830 0.76506889 3.09984970
-1.94961977 0.75265777 3.09150457
-1.59403372 0.76338530 3.10385036
-1.59993267 0.76468229 3.10199642
-1.93415987 0.75323236 3.09191942
-1.60951638 0.76531160 3.10063648
-1.91870129 0.75382221 3.09231901
-2.39582157 0.55055141 3.26989174
-2.36666989 0.73004580 3.07722855
-2.39431620 0.38530791 3.45428848
-2.39609528 0.58139038 3.23518801
-2.41272640 0.71423304 3.08422327
-2.39591551 0.56088376 3.25837040
-2.35142660 0.73414874 3.08077288
-2.39618969 0.59172809 3.22367239
-2.39750218 0.71866071 3.08805847
-2.42518139 0.39204800 3.43980408
-2.38058019 0.55469739 3.27347517
-2.39476252 0.42775333 3.40920401
-2.38067341 0.56501579 3.26194143
-2.39483023 0.43764937 3.39729261
-2.41001129 0.39737344 3.44444275
-2.37910604 0.38996911 3.45833254
-2.39628315 0.60204852 3.21214056
-2.37956071 0.43255258 3.41337204
-2.36533785 0.55883992 3.27705526
-2.39483452 0.40255737 3.44895458
-2.38094854 0.59588623 3.22726679
-2.36374927 0.39223957 3.46023846
-2.36543393 0.56921124 3.26556873
-2.37959504 0.44191718 3.40098476
-2.39600325 0.57109392 3.24674129
-2.36435461 0.44608259 3.40458584
-2.38104391 0.60623503 3.21576023
-2.38076687 0.57533050 3.25040531
-2.39466095 0.40852034 3.43352604
-2.39492512 0.44799459 3.38578415
-2.40996122 0.40534878 3.43081379
-2.36570597 0.60001397 3.23083353
-2.36552978 0.57955694 3.25406122
-2.37966728 0.45187414 3.38912916
-2.36580729 0.61046612 3.21941948
-2.39470625 0.41804314 3.42128038
-2.40996456 0.41419661 3.41796494
-2.36441064 0.45577765 3.39249563
-2.38085556 0.58558273 3.23881245
-2.37957335 0.42397642 3.42646217
-2.39637566 0.61234605 3.20058918
-2.41001177 0.42375076 3.40574884
-2.36561251 0.58970904 3.24237823
-2.38113904 0.61657417 3.20424604
-2.39500427 0.45807898 3.37404108
-2.41007471 0.43357050 3.39376879
-2.36590004 0.62077558 3.20787907
-2.37975550 0.46211600 3.37752676
-2.41016531 0.44383657 3.38218975
-2.36451530 0.46627295 3.38111973
-2.39646912 0.62266338 3.18905449
-2.41025305 0.45406270 3.37057304
-2.38123393 0.62691879 3.19273567
-2.39509225 0.46831250 3.36243248
-2.36599350 0.63109541 3.19634676
-2.39657044 0.63310683 3.17763376
-2.37984800 0.47240806 3.36597061
-2.39517617 0.47846568 3.35075092
-2.38132811 0.63724470 3.18121004
-2.36460876 0.47660112 3.36959648
-2.39525890 0.48860836 3.33906126
-2.39666796 0.64349115 3.16615915
-2.36609030 0.64146054 3.18485594
-2.39535069 0.49890327 3.32750654
-2.39675331 0.65367150 3.15450287
-2.37993097 0.48256588 3.35429335
-2.39544392 0.50921333 3.31596613
-2.38142443 0.64761019 3.16971827
-2.39684677 0.66400218 3.14298058
-2.36469269 0.48676062 3.35792017
-2.36618781 0.65183830 3.17337561
-2.39553595 0.51951635 3.30441856
-2.39694834 0.67444396 3.13155842
-2.38001251 0.49268389 3.34258175
-2.39562798 0.52981126 3.29286528
-2.38151217 0.65783584 3.15810299
-2.36477184 0.49684668 3.34617996
-2.41231298 0.68110931 3.11688185
-2.39572191 0.54013336 3.28133488
-2.36627698 0.66210377 3.16179562
-2.39706182 0.68508637 3.12031460
-2.38010645 0.50300062 3.33104610
-2.38160372 0.66812873 3.14654636
-2.41243410 0.69188166 3.10575581
-2.36486435 0.50715446 3.33463669
-2.36636543 0.67232573 3.15017557
-2.38171530 0.67874169 3.13527727
-2.39717102 0.69566393 3.10901356
-2.38020277 0.51337576 3.31956434
-2.36649036 0.68315554 3.13910055
-2.36496186 0.51753068 3.32315588
-2.41257334 0.70294416 3.09488773
-2.38184547 0.68965220 3.12427330
-2.38029671 0.52369666 3.30803299
-2.39729357 0.70646393 3.09791088
-2.38194966 0.70014453 3.11289692
-2.36505747 0.52788782 3.31165695
-2.38208055 0.71107173 3.10190725
-2.38038921 0.53398776 3.29647636
-2.36514997 0.53818643 3.30010700
-2.38230610 0.72355390 3.09230947
-2.38048148 0.54429293 3.28493071
-2.38197994 0.72701359 3.07464123
-2.36523890 0.54843628 3.28851128
-1.88538241 0.42291951 3.48776531
-2.32132864 0.74831295 3.09415770
-1.85757029 0.76770222 3.10422373
-2.32887268 0.55246925 3.31258249
-2.31825018 0.40780282 3.47503662
-2.00905561 0.41831207 3.48445129
-1.90084088 0.42234969 3.48734474
-2.32966208 0.61434507 3.24335432
-1.87302923 0.76712155 3.10381413
-2.33673477 0.74195123 3.10021496
-2.32898521 0.56278265 3.30104446
-2.32352114 0.40822506 3.47420406
-2.02451468 0.41776204 3.48400784
-1.86992180 0.42347312 3.48820496
-2.32977581 0.62465858 3.23181629
-1.84211063 0.76828480 3.10462999
-2.31665802 0.74896955 3.09374237
-2.32922792 0.57309079 3.28950405
-2.30278301 0.40758753 3.47633600
-1.99359643 0.41890883 3.48484230
-1.85446382 0.42403865 3.48862982
-2.32986069 0.63497269 3.22028065
-2.30587912 0.75006735 3.09325361
-1.82665217 0.76888275 3.10501957
-2.28732228 0.40797782 3.47695827
-1.83900321 0.42459190 3.48907042
-2.32948017 0.58339918 3.27796221
-1.97813833 0.41951478 3.48522282
-2.33005762 0.64528310 3.20873976
-2.29042459 0.75109780 3.09315920
-1.81119227 0.76947546 3.10541487
-2.27186203 0.40847254 3.47746325
-1.82354474 0.42516565 3.48948669
-2.32951093 0.59371567 3.26642799
-1.96267784 0.42006350 3.48566771
-2.33039999 0.65558743 3.19719696
-2.27496648 0.75181985 3.09341002
-1.79573393 0.77005708 3.10582352
