0.09974188 0.07373577 -3.10309696
0.07718764 0.15468340 -3.08775806
0.05933113 0.18340340 -3.05798793
-0.04827933 0.32852069 -3.08950901
-0.04258388 0.37189531 -3.08676910
-0.10106950 0.44504139 -3.11520910
-0.09891398 0.40161669 -3.07098889
-0.16851979 0.47113171 -3.07019591
-0.26949641 0.49458089 -3.07802606
-0.29927731 0.48233369 -3.07447505
-0.38267320 0.48377931 -3.08235908
-0.31051940 0.47956851 -3.07027602
-0.50933123 0.46311650 -3.08034611
-0.44458470 0.50238651 -3.09521008
-0.58153969 0.47004020 -3.09308195
-0.64397198 0.39968070 -3.11559892
-0.65643060 0.37221259 -3.08481693
-0.72641093 0.32201311 -3.09967899
-0.73818868 0.30346569 -3.07791305
-0.85143882 0.15804981 -3.08921003
-0.79161727 0.29232371 -3.08063102
-0.85118729 0.08544791 -3.09158897
-0.85410613 0.11453330 -3.09088111
-0.83121002 0.19299041 -3.09521890
0.08957272 0.05655939 -3.06312490
-0.14012860 0.40156490 -3.05795002
-0.18654761 0.43837771 -3.07803202
-0.26932669 0.47185740 -3.03100896
-0.21050000 0.45664531 -3.04592490
-0.31787461 0.49621719 -3.04821301
-0.36917561 0.48019040 -3.05419898
-0.55383438 0.43218151 -3.05386400
-0.66501540 0.41659760 -3.06557393
-0.59396529 0.44124010 -3.06348395
-0.70210898 0.33256331 -3.06447291
-0.76757091 0.29918110 -3.06886005
-0.81706393 0.26879269 -3.05628395
-0.78911299 0.28029111 -3.06609011
0.09363271 0.18685900 -3.02283812
0.10343180 0.16193160 -2.98282504
-0.07267073 0.41346529 -3.02894592
-0.21906780 0.46037549 -2.98545790
-0.36320329 0.48819631 -3.00918198
-0.51146638 0.50954640 -3.03955889
-0.46910161 0.49096090 -2.98586106
-0.64851141 0.45194560 -3.00809693
-0.66027379 0.41045529 -3.02453494
-0.73782390 0.36116159 -3.04512501
-0.74248117 0.33380899 -3.02480698
-0.78507513 0.24431010 -3.02531910
-0.84201783 0.19681381 -3.03734398
-0.86936128 0.07408360 -2.98096395
-0.85001689 0.07345276 -3.02389407
0.13314711 0.07868849 -2.98390293
-0.88162792 0.08041599 -3.01291704
0.13445760 0.16403989 -2.94624496
-0.11039970 0.42560819 -2.96550798
-0.09158026 0.39545050 -2.99803495
-0.18621440 0.44689050 -2.99093509
-0.26421231 0.49374110 -2.96665001
-0.29924250 0.50490677 -2.98423910
-0.28838050 0.48588571 -2.96158791
-0.54583281 0.48321649 -3.00669003
-0.54713082 0.47836730 -2.96375895
-0.66453648 0.42010859 -2.94310498
-0.77238190 0.28845179 -2.98280907
-0.78933758 0.31321290 -2.94347596
-0.86862189 0.06041713 -2.94746900
-0.84885371 0.18293381 -2.98864007
-0.89129943 0.04260252 -2.97759604
0.07289222 0.21325530 -2.92258310
0.05068304 0.26495281 -2.94298697
-0.14209490 0.41580591 -2.98054290
-0.08331342 0.40141401 -2.96322393
-0.46227619 0.52355891 -2.97364712
-0.31014660 0.52031940 -2.91806412
-0.50097722 0.46772039 -2.91270089
-0.43213141 0.50618827 -2.91868401
-0.56458139 0.49483639 -2.95001507
-0.70661658 0.38266489 -2.95405197
-0.70945323 0.42238811 -2.94920802
-0.75676328 0.32727531 -2.94729996
-0.84323817 0.24689960 -2.92736506
-0.87721539 0.15378800 -2.92789292
-0.90819341 0.04362954 -2.96112299
0.13743180 0.08148886 -2.94229603
-0.89385480 0.04453716 -2.89359593
0.09690219 0.13231900 -2.93098092
0.08195170 0.18641920 -2.87679601
-0.02952595 0.36166191 -2.93524694
-0.05660670 0.40641949 -2.91169000
-0.20661400 0.50102782 -2.92426491
-0.06908736 0.38315421 -2.90289903
-0.21223010 0.49005270 -2.91077399
-0.33989531 0.49615851 -2.91859889
-0.43900660 0.51355571 -2.90666294
-0.63287932 0.42935061 -2.91631007
-0.81616127 0.26907530 -2.89256907
-0.85768992 0.22070670 -2.90223503
-0.89852691 0.13947850 -2.89147711
-0.90859842 0.06917667 -2.87361312
0.14195099 0.08877195 -2.89426708
0.10839240 0.17975450 -2.87311792
0.05150374 0.28008080 -2.87324309
-0.07615492 0.40468431 -2.84435892
-0.18150669 0.49093929 -2.86362195
-0.24270630 0.49990889 -2.86652589
-0.31905860 0.49468991 -2.89372206
-0.33857599 0.49466240 -2.83874607
-0.58043212 0.46248540 -2.89546609
-0.85482359 0.26318279 -2.89249611
-0.78391838 0.28867981 -2.87572598
-0.90592712 0.10762560 -2.86561894
0.16420729 0.05026954 -2.82675910
0.05129650 0.28661260 -2.81346011
-0.21911161 0.47710669 -2.83697796
-0.26601380 0.52217537 -2.84725690
-0.27627939 0.50279868 -2.82607603
-0.67269832 0.41270790 -2.83653498
-0.71378511 0.39330989 -2.85507798
-0.81817752 0.23615681 -2.84230304
-0.81627619 0.28642881 -2.81673288
-0.89300931 0.05484883 -2.82520604
0.16131420 0.07957436 -2.82123208
-0.87029958 0.08091193 -2.84093094
0.00703972 0.33342981 -2.76134109
-0.03684026 0.42113569 -2.79954290
-0.30242029 0.48630479 -2.77238488
-0.65032881 0.47622171 -2.80621290
-0.58378458 0.49936399 -2.75773096
-0.76728809 0.34700200 -2.80696511
-0.69432253 0.38847089 -2.75929308
-0.83617133 0.23713060 -2.76704001
-0.86385781 0.16067059 -2.77405000
-0.87545288 0.22817020 -2.80319595
0.13745581 0.04070253 -2.77318311
0.11841180 0.13343459 -2.72753692
0.15021230 0.04524588 -2.76084304
-0.02529897 0.34392869 -2.75386691
0.00458891 0.31307250 -2.77120090
-0.16246110 0.48144051 -2.78166509
-0.36129460 0.53293592 -2.75259995
-0.50784498 0.50893903 -2.75923800
-0.45249841 0.50248128 -2.74777603
-0.62941551 0.43091661 -2.79027700
-0.71213359 0.37392089 -2.78370595
-0.66217113 0.43116251 -2.72939491
-0.77538449 0.32933149 -2.74499106
-0.88088912 0.10765920 -2.76556802
-0.85809302 0.18605560 -2.73584199
-0.89949441 0.05862689 -2.71472192
0.10352780 0.19921610 -2.70407200
-0.16257000 0.45167959 -2.70560789
-0.09192214 0.42777359 -2.70029712
-0.29970041 0.50831503 -2.75829697
-0.14764430 0.46661240 -2.72857404
-0.37617800 0.52824599 -2.74907899
-0.43229401 0.49130121 -2.74018097
-0.51492172 0.47659051 -2.73059511
-0.46034679 0.51777571 -2.72559810
-0.56814849 0.48280951 -2.72510409
-0.69884032 0.43196449 -2.71018696
-0.84518099 0.15822279 -2.72385502
-0.81244922 0.19823641 -2.69278097
0.09953135 0.09204626 -2.67557502
0.06556779 0.17774630 -2.66365910
-0.00668618 0.35915780 -2.71102500
0.03752097 0.31721669 -2.69663692
-0.05992936 0.38113779 -2.66225290
-0.10076330 0.45664111 -2.68191409
-0.09000892 0.39027339 -2.65509391
-0.25950861 0.47258461 -2.70173693
-0.28054059 0.48514470 -2.66616392
-0.50618118 0.49440321 -2.71226096
-0.79659748 0.24480180 -2.67807508
-0.77073443 0.29423901 -2.65628195
-0.89229250 0.05308579 -2.65781593
-0.83757722 0.10456100 -2.65065503
-0.84133393 0.18628260 -2.66682196
0.13070990 0.08517313 -2.67932296
-0.87540197 0.05583243 -2.68062210
0.05763702 0.20119910 -2.65789294
0.00582456 0.29334691 -2.65611792
0.08146580 0.18214360 -2.65699100
-0.01585511 0.37333459 -2.64596105
0.01550015 0.28747120 -2.65765405
-0.07867343 0.40641350 -2.63471508
-0.13600680 0.44500640 -2.64613891
-0.18467300 0.46296871 -2.67713404
-0.25032270 0.45810100 -2.68522000
-0.16398869 0.42508721 -2.62918901
-0.35994849 0.49659050 -2.67437601
-0.31928441 0.48431349 -2.62157702
-0.46970841 0.49134979 -2.66975904
-0.41867030 0.50157851 -2.64987111
-0.63050520 0.44695061 -2.65132594
-0.57129341 0.43102261 -2.65259910
-0.68626243 0.38887590 -2.64953494
-0.74544817 0.33951330 -2.66883612
-0.69597328 0.42278591 -2.66108608
-0.76162630 0.28345469 -2.63622308
-0.79520023 0.26487720 -2.65265393
-0.86138773 0.17705430 -2.62978411
-0.75753272 0.29465771 -2.66642094
-0.84652621 0.06823784 -2.64692998
-0.86917537 0.05825609 -2.63829708
-0.87637752 0.13782661 -2.68530107
0.11096850 0.10316840 -2.62975502
0.13164480 0.07517056 -2.60116911
0.09468336 0.20080499 -2.61616111
0.04072737 0.26995030 -2.65325093
0.02645392 0.30829599 -2.64178896
0.08399316 0.17939220 -2.63116002
-0.02500916 0.36495411 -2.62810707
0.01747319 0.31782261 -2.58227992
-0.13303770 0.40893480 -2.62976503
-0.20316100 0.44514349 -2.61308289
-0.18058009 0.42800739 -2.63047791
-0.37113181 0.50047052 -2.61860394
-0.30230159 0.47016340 -2.60669088
-0.41940829 0.48713201 -2.64937305
-0.57614177 0.42570919 -2.63074994
-0.43412131 0.48539820 -2.57582998
-0.61733383 0.40954870 -2.59812403
-0.68308288 0.36450079 -2.64463401
-0.55684668 0.46503821 -2.59543896
-0.72627962 0.33274850 -2.62996197
-0.75242162 0.27375221 -2.61723304
-0.68778253 0.38043419 -2.58547497
-0.77241272 0.24097151 -2.62911701
-0.75780529 0.30351120 -2.62947202
-0.83255422 0.14332980 -2.63232088
-0.83070469 0.16807210 -2.57919097
-0.86515522 0.07705352 -2.60776401
0.07759539 0.09684702 -2.58177209
-0.86131608 0.08470330 -2.58554101
0.07242765 0.03599552 -2.57934904
0.04868834 0.19993190 -2.60609794
0.05033434 0.21759839 -2.58280706
0.06923045 0.18931180 -2.56164002
0.00561417 0.28826541 -2.56787705
-0.04244215 0.32878241 -2.58581090
-0.09077677 0.38537121 -2.56578898
0.00194201 0.30727980 -2.56506491
-0.11822670 0.44241941 -2.60874701
-0.18171020 0.41705111 -2.56949306
-0.10467880 0.34640321 -2.54351306
-0.24605820 0.46897161 -2.59737706
-0.17412300 0.40657580 -2.56029701
-0.33812219 0.45246169 -2.56821203
-0.39700440 0.49381810 -2.60033798
-0.44642261 0.49846119 -2.55961108
-0.31222370 0.46775949 -2.59437990
-0.51228690 0.44715729 -2.57427692
-0.45780191 0.49390799 -2.59316707
-0.55401433 0.43696639 -2.60194898
-0.62193012 0.43525651 -2.58461905
-0.67656791 0.39953750 -2.59366298
-0.73143578 0.32811669 -2.56744409
-0.75814170 0.31237561 -2.55825996
-0.66209751 0.38024059 -2.57200909
-0.77089733 0.27124149 -2.56702805
-0.74528742 0.29418579 -2.58609104
-0.80999732 0.19259480 -2.58749604
-0.83134180 0.09417811 -2.59605789
-0.85894960 0.08503235 -2.58776212
-0.78552890 0.19735929 -2.56807899
-0.84072018 0.06919904 -2.53676200
0.05863751 0.11416590 -2.55861211
0.04681008 0.17726140 -2.55385804
0.07151528 0.07718676 -2.56370497
0.05150020 0.21380460 -2.56548095
0.06019998 0.16378389 -2.54719305
-0.00262841 0.26872540 -2.55600905
-0.04608266 0.34860739 -2.55097198
-0.01813637 0.28522560 -2.55915904
-0.15648560 0.41927639 -2.57089400
-0.08295672 0.33590361 -2.54378104
-0.18789080 0.45024481 -2.55310011
-0.24461530 0.46553671 -2.55641794
-0.29703370 0.44114479 -2.56532001
-0.35207450 0.48951930 -2.57549906
-0.33387119 0.43471149 -2.51891303
-0.51905310 0.45640931 -2.53737712
-0.52982289 0.44087389 -2.53470397
-0.61093742 0.40386891 -2.55212808
-0.53374118 0.43347210 -2.51130700
-0.73360461 0.35124981 -2.54944205
-0.67583728 0.36468351 -2.51754093
-0.76268989 0.30292651 -2.53930998
-0.75993890 0.20921470 -2.55113697
-0.74129701 0.26630831 -2.55520105
-0.80891728 0.14623810 -2.55681801
-0.85650098 0.04971011 -2.53522611
-0.82188141 0.19550030 -2.53288794
0.09266753 0.04732689 -2.52822495
-0.80309409 0.06579740 -2.54928708
0.03865578 0.09113737 -2.49811411
0.01916224 0.15192750 -2.54249096
0.01644866 0.20466881 -2.50572109
-0.02385307 0.28882670 -2.54005694
0.04819486 0.13869651 -2.48113108
-0.08459876 0.30013791 -2.50759506
-0.07758102 0.36180571 -2.53512001
-0.01403444 0.26796451 -2.52069592
-0.14992911 0.39036459 -2.52393293
-0.12905580 0.33401060 -2.53032088
-0.22102620 0.42139560 -2.50511599
-0.25321820 0.45551801 -2.54675889
-0.21030660 0.38788110 -2.52559805
-0.29473501 0.43752211 -2.53358603
-0.35436520 0.45710099 -2.54562712
-0.41654131 0.44533601 -2.49804211
-0.48346579 0.42223379 -2.52822709
-0.56932169 0.41993111 -2.54281998
-0.43615869 0.42171520 -2.53417110
-0.58314967 0.39734191 -2.54440403
-0.54990852 0.42177379 -2.51864600
-0.64078552 0.37958589 -2.51554704
-0.68319142 0.31514391 -2.54539609
-0.74316841 0.27657011 -2.49173689
-0.65280801 0.32729429 -2.52739191
-0.81119049 0.18630010 -2.51911402
-0.70873392 0.23576880 -2.47422194
-0.82639819 0.10506050 -2.53762698
-0.79100877 0.05581889 -2.53365803
-0.77944422 0.17579460 -2.53232789
-0.78833872 0.04588303 -2.50988412
0.03985689 0.13387939 -2.46988201
-0.00521796 0.21274610 -2.48616004
-0.01922766 0.27793160 -2.49950790
0.02412651 0.14681010 -2.45987296
-0.05919069 0.29044390 -2.49313092
-0.05938931 0.26005450 -2.48443198
-0.16439410 0.35675359 -2.51738501
-0.23484340 0.41650560 -2.50031996
-0.13589270 0.32333821 -2.47011590
-0.25572440 0.40892991 -2.47005391
-0.23327820 0.40276620 -2.45922995
-0.29670709 0.43849400 -2.49319506
-0.42221490 0.39495879 -2.45942497
-0.55251712 0.37066251 -2.48086905
-0.60654372 0.36511210 -2.51315999
-0.71571672 0.22938371 -2.46078300
-0.61559987 0.32863459 -2.46930408
-0.76953173 0.12877791 -2.46986699
-0.69335169 0.26969799 -2.45212197
-0.76939839 0.10621600 -2.49416590
-0.76913899 0.14769641 -2.44907498
-0.81670761 0.03911459 -2.47276902
0.05721229 0.07665906 -2.44390297
-0.79287279 0.04356200 -2.46068001
0.02357944 0.14479581 -2.43270898
0.02030726 0.05293362 -2.45193410
-0.03649356 0.21603890 -2.46085501
-0.01114827 0.12772650 -2.41636801
-0.03276808 0.25732961 -2.45567799
-0.07156803 0.31621709 -2.45622492
-0.14508510 0.34714860 -2.46677804
-0.05056502 0.26070231 -2.46519995
-0.16462700 0.34604189 -2.47474790
-0.21536130 0.35811391 -2.43924809
-0.13750410 0.29195419 -2.44147110
-0.28855091 0.40833119 -2.43885803
-0.21274079 0.37631649 -2.43220496
-0.31198561 0.41077450 -2.44821000
-0.38336161 0.42605281 -2.45369697
-0.41322041 0.40698159 -2.44851208
-0.29990751 0.41930091 -2.45047998
-0.46173260 0.42146349 -2.43383408
-0.51274419 0.36254999 -2.45424294
-0.60490108 0.36361510 -2.44240189
-0.61303192 0.30840999 -2.43963695
-0.51109648 0.34775501 -2.45252800
-0.67600232 0.29989150 -2.43595791
-0.59544021 0.32069770 -2.42810893
-0.68912488 0.23075899 -2.46597004
-0.71079451 0.18188760 -2.43350697
-0.65976650 0.23812731 -2.45028996
-0.75250572 0.16257811 -2.47072101
-0.78126502 0.12822470 -2.44981694
-0.72641408 0.17026471 -2.46161199
-0.80502617 0.06650534 -2.43367195
0.04272769 0.02315504 -2.44381809
-0.74602449 0.05836574 -2.44066691
0.02634320 0.09736960 -2.44579911
-0.03208867 0.14308400 -2.42084098
-0.00685320 0.06881353 -2.43701696
-0.03569363 0.17299810 -2.42755890
-0.04586985 0.11379440 -2.40488601
-0.08953071 0.22912230 -2.43307900
-0.10911300 0.28312159 -2.43327403
-0.10746860 0.23054570 -2.41127706
-0.16268811 0.32902670 -2.42688704
-0.15165110 0.28717169 -2.39863110
-0.24850190 0.37983829 -2.40905404
-0.32351381 0.38299951 -2.44117498
-0.22396450 0.32171711 -2.40842009
-0.37540969 0.37226939 -2.41107702
-0.34066951 0.34577250 -2.40936089
-0.43033469 0.39559889 -2.44970393
-0.53387350 0.35398981 -2.41967797
-0.44264081 0.38589409 -2.44172597
-0.59547120 0.35404581 -2.42218399
-0.59109080 0.27933431 -2.40658689
-0.51114058 0.32158640 -2.38788605
-0.63665253 0.28748450 -2.42407393
-0.67479903 0.23706479 -2.42884898
-0.58473063 0.28020439 -2.39630699
-0.68662542 0.17688119 -2.41601801
-0.70779830 0.13225441 -2.43831396
-0.64842939 0.20826560 -2.40055704
-0.76079398 0.10165190 -2.45469499
-0.69671428 0.15017800 -2.41007900
-0.75108337 0.02274866 -2.42617512
-0.03269200 0.04669822 -2.39058995
-0.71922612 0.04713313 -2.43369007
-0.02724194 0.02404116 -2.41787505
-0.03712946 0.08805010 -2.38856912
-0.00613962 0.05405575 -2.37027407
-0.03650296 0.11852620 -2.40063095
-0.03700970 0.17697020 -2.40941405
-0.10526140 0.20490690 -2.41591406
-0.07294385 0.12123130 -2.37497211
-0.10440900 0.27543640 -2.37717390
-0.09439851 0.23890540 -2.40003395
-0.14525700 0.29167691 -2.39612198
-0.18679050 0.26135519 -2.40814900
-0.21462610 0.36029270 -2.37400603
-0.33255559 0.36586440 -2.42363191
-0.37530479 0.37216061 -2.41202998
-0.42345670 0.37031361 -2.39662504
-0.33446440 0.32155031 -2.39741611
-0.46888721 0.33610839 -2.37487602
-0.51585072 0.33612329 -2.42065692
-0.59529430 0.26756361 -2.40865898
-0.49773940 0.29745039 -2.41354489
-0.65965712 0.20441160 -2.42436790
-0.68634808 0.10795960 -2.42454791
-0.67487532 0.19145390 -2.39725089
-0.72587693 0.05470414 -2.38523006
-0.75284737 0.03739763 -2.40943789
-0.05457363 0.07025229 -2.40064001
-0.03369445 0.15217550 -2.36843491
-0.02472268 0.01914634 -2.34645700
-0.10376060 0.22069210 -2.39145207
-0.14553130 0.27937999 -2.34315610
-0.22787599 0.30035490 -2.36787891
-0.25742871 0.29523450 -2.39745903
-0.20154580 0.27227369 -2.36188889
-0.31802511 0.33485121 -2.39521909
-0.22694720 0.32202259 -2.37945700
-0.34746969 0.33844921 -2.39523005
-0.35190421 0.32275659 -2.34590006
-0.39963391 0.34089011 -2.37117290
-0.44798851 0.34843069 -2.36561203
-0.50216079 0.33550739 -2.38848305
-0.44429690 0.33399230 -2.36015296
-0.54677057 0.31760710 -2.34585500
-0.53203779 0.29808429 -2.35102797
-0.59267092 0.28970951 -2.34795403
-0.62213433 0.23570479 -2.37223005
-0.67093039 0.22384140 -2.36727905
-0.57175958 0.25383940 -2.37710595
-0.65987068 0.18696859 -2.39714599
-0.68599892 0.13878921 -2.35536098
-0.65398037 0.17591880 -2.36055899
-0.70604497 0.01955093 -2.37889194
-0.68899232 0.09421631 -2.38116407
-0.67478561 0.13739380 -2.34534788
-0.70677799 0.04785411 -2.36506796
-0.04074501 0.09346589 -2.35184002
-0.07452931 0.12650430 -2.32385612
-0.05693460 0.04129883 -2.34093809
-0.02722733 0.05839163 -2.35454512
-0.08415262 0.06877682 -2.36295509
-0.10249420 0.15723550 -2.33767009
-0.09836493 0.20293970 -2.36732101
-0.16681530 0.20297641 -2.35503101
-0.11306880 0.21604779 -2.34023499
-0.16894551 0.27105451 -2.32295704
-0.27776730 0.29967961 -2.33527303
-0.19818440 0.21796100 -2.31903911
-0.32110831 0.32424840 -2.35369611
-0.33427319 0.31253999 -2.35774207
-0.28086370 0.26958019 -2.33503509
-0.36343101 0.33191499 -2.32841897
-0.35953060 0.32164860 -2.35204291
-0.40903050 0.33316860 -2.37117100
-0.42124611 0.31402639 -2.31549311
-0.51095182 0.31878880 -2.34156704
-0.58421803 0.27981541 -2.36430812
-0.67285269 0.13140690 -2.34960890
-0.63148648 0.17858440 -2.32643199
-0.66733003 0.10162790 -2.35139489
-0.71600389 0.04310961 -2.35720110
-0.67089587 0.06380057 -2.34193897
-0.08136652 0.05272871 -2.30551696
-0.68545449 0.06274859 -2.34336901
-0.05482596 0.06249287 -2.31374002
-0.08305416 0.04062806 -2.29540992
-0.07727643 0.15119070 -2.30345702
-0.15776210 0.24430110 -2.31056309
-0.21127820 0.26181599 -2.31765008
-0.26849589 0.31726119 -2.29296994
-0.33549541 0.29873699 -2.29628897
-0.23149760 0.31199151 -2.30504298
-0.38996691 0.31043831 -2.32232809
-0.30738449 0.30004671 -2.29122305
-0.47473949 0.32752490 -2.27891493
-0.51280117 0.27231821 -2.28705502
-0.59022361 0.26884991 -2.33187389
-0.61562413 0.22673880 -2.28200006
-0.59080791 0.22978660 -2.28560710
-0.64555871 0.17087850 -2.32118201
-0.65750593 0.10624140 -2.34076691
-0.67355287 0.03433719 -2.32303810
-0.68445170 0.01236513 -2.29985189
-0.04572149 0.00556959 -2.29504704
-0.66872388 0.02686111 -2.26690698
-0.03440234 0.06041838 -2.26745009
-0.03343917 0.07123674 -2.28977799
-0.04613556 0.06382155 -2.27093911
-0.14647390 0.17634140 -2.25935507
-0.07789518 0.11813390 -2.28522611
-0.16758510 0.25695151 -2.28729701
-0.18641660 0.24887469 -2.29777408
-0.12892160 0.18295790 -2.26638293
-0.15705310 0.26978061 -2.26899290
-0.35878381 0.29776010 -2.23919797
-0.41791359 0.31486100 -2.26164699
-0.47020030 0.29931459 -2.28026795
-0.53807098 0.28785640 -2.27910900
-0.58401018 0.23334581 -2.23333907
-0.52723742 0.31837040 -2.28496909
-0.58010948 0.23594040 -2.27975297
-0.60633391 0.18215349 -2.24445009
-0.68599439 0.14752330 -2.28365207
-0.70247048 0.01264395 -2.26244903
-0.69671571 0.07734978 -2.26099992
-0.65618229 0.07747146 -2.29557610
-0.03626952 0.02164926 -2.25486398
-0.08420210 0.10542780 -2.25925207
-0.02263157 0.04224329 -2.24447608
-0.08901517 0.10642700 -2.22567511
-0.11488770 0.17408030 -2.26995492
-0.05498130 0.10415700 -2.22763801
-0.12828170 0.22311240 -2.25693989
-0.13663070 0.24094410 -2.26411605
-0.15167820 0.24384999 -2.24735403
-0.08109785 0.21396969 -2.20386600
-0.19211930 0.27208570 -2.24604297
-0.24273160 0.32572550 -2.21882010
-0.15383790 0.26852131 -2.23168612
-0.28204221 0.33287969 -2.26312304
-0.21559550 0.30774039 -2.24015093
-0.31106791 0.30381539 -2.21723509
-0.30081019 0.34048060 -2.21959305
-0.46012980 0.32338569 -2.23253798
-0.49333549 0.30826980 -2.21292090
-0.42933950 0.35293111 -2.19619012
-0.48385710 0.34292549 -2.21381211
-0.57791102 0.28889021 -2.25088000
-0.63185138 0.24903519 -2.23502588
-0.57343692 0.27175659 -2.24352503
-0.62319720 0.20587990 -2.22380900
-0.68395388 0.13912231 -2.23606610
-0.68921149 0.12982990 -2.25168395
-0.62790102 0.23283610 -2.24894404
-0.73455971 0.04735520 -2.21057606
-0.71840721 0.02284177 -2.23369193
-0.70446020 0.09460029 -2.25848508
-0.70139778 0.10702390 -2.23950601
-0.73812270 0.03560228 -2.21061110
-0.02168862 0.08853691 -2.17662191
-0.03635065 0.15929820 -2.18567610
-0.08535864 0.19988389 -2.21916699
-0.04911812 0.14292081 -2.19620204
-0.14588000 0.24567440 -2.21998405
-0.07534073 0.24120639 -2.18785810
-0.22340120 0.29920250 -2.18076396
-0.16251990 0.28274891 -2.17437911
-0.30474851 0.34971881 -2.18154407
-0.35285699 0.33391449 -2.18790507
-0.24040949 0.31253830 -2.20823789
-0.36818889 0.36043569 -2.22359490
-0.30718791 0.33697930 -2.16520309
-0.46480080 0.34417850 -2.20778608
-0.39879259 0.32754701 -2.21224499
-0.49870479 0.31084991 -2.22250795
-0.54597569 0.32091549 -2.19627905
-0.61164939 0.27383500 -2.22682500
-0.64130098 0.25485271 -2.18560791
-0.64153570 0.23405311 -2.21159196
-0.61790723 0.26621601 -2.18239999
-0.67386132 0.16888040 -2.18592000
-0.69750112 0.10670300 -2.18572497
-0.65187728 0.19598500 -2.18265700
-0.72388142 0.08147838 -2.22783089
-0.71321821 0.05186873 -2.20974302
-0.02448113 0.03604737 -2.17239904
-0.74954641 0.01716857 -2.20311999
-0.03010025 0.11617680 -2.15199494
0.00156729 0.04390913 -2.17979097
-0.05191893 0.15882860 -2.17192507
-0.03709760 0.12912920 -2.14802599
-0.08519829 0.23399889 -2.17770600
-0.13283490 0.27945340 -2.16447210
-0.06166982 0.21384540 -2.15974212
-0.20133190 0.31150860 -2.19148898
-0.14061460 0.30954111 -2.14263511
-0.27943531 0.33572161 -2.14768791
-0.21115540 0.35225701 -2.13728094
-0.35911119 0.38080400 -2.19667697
-0.31256959 0.39142859 -2.13306904
-0.46854740 0.35660690 -2.16428304
-0.49256960 0.33930999 -2.17532492
-0.40132961 0.35395351 -2.14097309
-0.55696958 0.31014469 -2.17095995
-0.53283077 0.36015421 -2.18078709
-0.59992969 0.29170871 -2.14339399
-0.62071693 0.28239220 -2.16633511
-0.67855912 0.20964870 -2.15132904
-0.58943212 0.27144429 -2.17267799
-0.70896077 0.17052390 -2.19521189
-0.70293832 0.21633141 -2.14869189
-0.69702828 0.14282501 -2.14985609
-0.75431198 0.10708530 -2.15126300
-0.71710408 0.04510204 -2.16631699
-0.71067148 0.14250350 -2.15836501
0.02808937 0.03043878 -2.14169312
-0.76267231 0.03270455 -2.16855693
-0.01297047 0.09582563 -2.11989689
-0.04042760 0.15529419 -2.12789702
0.03564188 0.05308160 -2.12518692
-0.02998795 0.21778710 -2.12769198
-0.05224578 0.24538800 -2.12197995
0.01868838 0.16807400 -2.13694191
-0.12440450 0.26564619 -2.12984300
-0.03227003 0.26381129 -2.09841299
-0.11738400 0.31009740 -2.15231395
-0.17866869 0.33730060 -2.12539601
-0.12355030 0.29795411 -2.13542104
-0.21020590 0.35383001 -2.11860704
-0.24683601 0.36408511 -2.09913611
-0.35184759 0.37435111 -2.16048694
-0.39902401 0.39575541 -2.11853099
-0.33820739 0.40691391 -2.12731600
-0.40753821 0.40130979 -2.15065694
-0.45591891 0.37060970 -2.16113901
-0.51662952 0.35244060 -2.16079211
-0.44997981 0.37383419 -2.09710908
-0.60680181 0.33491221 -2.14109111
-0.52706772 0.37210181 -2.12149596
-0.67103130 0.28408480 -2.10789394
-0.62477821 0.32501379 -2.11174893
-0.67846739 0.25980431 -2.13663006
-0.69395578 0.19365880 -2.12976789
-0.73342538 0.14050250 -2.11805701
-0.70558089 0.25942639 -2.10694504
-0.78141463 0.09263100 -2.11572599
-0.75118393 0.02878602 -2.11376405
-0.76113367 0.16894680 -2.13539290
0.03356389 0.05079259 -2.14140296
-0.76805258 0.03127925 -2.11804199
0.02682072 0.03525611 -2.08186507
0.01950204 0.09111856 -2.13276100
0.06765999 0.06887622 -2.08071399
0.00919816 0.13527170 -2.07999492
-0.02967452 0.19506510 -2.11078811
-0.00380195 0.18333820 -2.06963205
-0.06905164 0.27379930 -2.11173797
-0.08213939 0.31751779 -2.10354304
-0.13461889 0.31975511 -2.12012291
-0.04973027 0.28299421 -2.12103295
-0.17919450 0.34106421 -2.11105394
-0.11885570 0.32518741 -2.07046103
-0.19687350 0.40614441 -2.12871909
-0.29409659 0.41036630 -2.08339810
-0.30465901 0.42227671 -2.13460112
-0.20181531 0.39184901 -2.11857510
-0.35183081 0.44218680 -2.07984090
-0.33168340 0.42460400 -2.09502101
-0.40818441 0.39873460 -2.08628511
-0.47990099 0.39045030 -2.10463190
-0.50587362 0.37189949 -2.12110806
-0.45197231 0.39209640 -2.07145691
-0.59452659 0.33850181 -2.10912490
-0.51013321 0.37616539 -2.07435298
-0.65123820 0.31362629 -2.09967804
-0.68693048 0.30882239 -2.09124899
-0.65161067 0.34787619 -2.08465099
-0.69506413 0.27467081 -2.12291002
-0.70898348 0.17938440 -2.09297800
-0.77335292 0.14031540 -2.11583591
-0.69421488 0.24171010 -2.08832002
-0.78929847 0.09975349 -2.10713291
-0.74990141 0.13907450 -2.10783601
-0.78426492 0.05833635 -2.09505391
0.07292142 0.08034834 -2.08390689
0.07439188 0.06106120 -2.09283090
-0.00374211 0.19277769 -2.08512998
-0.02191458 0.24959400 -2.06872392
-0.07809389 0.31119049 -2.06178188
-0.35010779 0.45686981 -2.05105710
-0.57641238 0.37939841 -2.10162210
-0.62103742 0.33359611 -2.08398199
-0.70608860 0.32903931 -2.08904290
-0.65358973 0.35986581 -2.05975509
-0.77032268 0.15809530 -2.06091189
-0.77275020 0.08556391 -2.09102988
-0.75488210 0.15282820 -2.07828593
-0.80936629 0.06950689 -2.05291700
-0.81539577 0.07119254 -2.08419800
-0.56721658 -0.07030578 -4.44398022
-0.54599988 -0.07536948 -4.47971201
-0.49069831 -0.11858880 -4.45585394
-0.49178809 -0.13330030 -4.47547102
-0.51966941 -0.10634860 -4.46121883
-0.45366189 -0.14325321 -4.47469902
-0.45023459 -0.16573840 -4.46766520
-0.40959239 -0.13109690 -4.43449879
-0.41868940 -0.15788920 -4.47193289
-0.33710089 -0.18577731 -4.47779989
-0.37349799 -0.15212920 -4.47382021
-0.34480071 -0.16470680 -4.45431280
-0.31815451 -0.15932231 -4.49524212
-0.27771419 -0.16306099 -4.47788095
-0.28620401 -0.15825830 -4.48192883
-0.23924351 -0.11422260 -4.45355082
-0.25341019 -0.09689176 -4.47230196
-0.24888690 -0.05511856 -4.44525003
-0.23647469 -0.09529538 -4.47574186
-0.20632289 -0.03059323 -4.47232580
-0.22734550 -0.00957581 -4.47323799
-0.20101370 -0.04934196 -4.48796177
-0.51507717 -0.02054776 -3.87299299
-0.49033329 -0.07416541 -3.88341904
-0.49488690 -0.15834190 -3.85635495
-0.43466619 -0.13845579 -3.89599109
-0.49694309 -0.13457310 -3.85195589
-0.42917100 -0.15451001 -3.87103009
-0.34607011 -0.20204429 -3.86418295
-0.29954261 -0.18079080 -3.87441111
-0.24518020 -0.13498920 -3.82863998
-0.23973510 -0.12878400 -3.86181402
-0.23483320 -0.06689618 -3.88773108
-0.21894130 -0.04973282 -3.84483409
-0.58900738 -0.03344679 -3.80663490
-0.57912749 -0.01107198 -3.79420710
-0.52563119 -0.04302849 -3.84307909
-0.51192057 -0.10865760 -3.80565906
-0.54908103 -0.10699210 -3.80258489
-0.51025712 -0.15264770 -3.85039711
-0.47820011 -0.17751870 -3.85614300
-0.48209810 -0.17195231 -3.82388401
-0.42481700 -0.18155280 -3.83988905
-0.43280160 -0.16056770 -3.79710388
-0.36818689 -0.19865400 -3.80709291
-0.35672641 -0.15792400 -3.85461998
-0.31458899 -0.19204590 -3.86031008
-0.29965961 -0.18639170 -3.79664707
-0.23400819 -0.16599759 -3.82168794
-0.25390729 -0.12205790 -3.82729697
-0.20230730 -0.11037870 -3.82234001
-0.19624650 -0.07201385 -3.81691289
-0.18740501 -0.05767724 -3.79644895
-0.20506050 0.01099085 -3.82206893
-0.21681100 -0.03610306 -3.82435989
-0.55204642 -0.02428040 -3.79159093
-0.20003210 0.02475571 -3.78077197
-0.58847260 -0.05190425 -3.77595711
-0.56204879 -0.04519012 -3.80655599
-0.56452882 -0.07915457 -3.79497409
-0.55277479 -0.08671087 -3.80217910
-0.52472609 -0.09832638 -3.79439211
-0.52121413 -0.17950711 -3.79937100
-0.46473491 -0.21957441 -3.77822304
-0.43192509 -0.17520159 -3.77290893
-0.36852080 -0.23807199 -3.77683091
-0.35747781 -0.21427850 -3.76544189
-0.34686291 -0.21163310 -3.82465911
-0.30258250 -0.20946680 -3.78365588
-0.23067661 -0.16441441 -3.77338099
-0.20586631 -0.13032161 -3.79606700
-0.20557670 -0.11573690 -3.76663995
-0.19042110 -0.04864298 -3.75906110
-0.58499801 -0.03118849 -3.74025393
-0.14432740 -0.00245460 -3.79594207
-0.57214308 -0.03307302 -3.73253393
-0.60217541 -0.09932671 -3.77922797
-0.49516961 -0.17404990 -3.75088501
-0.56373352 -0.12396320 -3.77433705
-0.54667938 -0.16750950 -3.73651290
-0.44822791 -0.22030500 -3.74525499
-0.52053303 -0.21383651 -3.75760293
-0.48289970 -0.19919610 -3.75306702
-0.46274441 -0.22020440 -3.78140998
-0.36159000 -0.20808271 -3.78729105
-0.32968250 -0.20736200 -3.74201798
-0.23374841 -0.19899639 -3.78939795
-0.25675291 -0.17956880 -3.76974201
-0.20015810 -0.17864899 -3.72884798
-0.20275611 -0.12309560 -3.73727608
-0.15689850 -0.05411920 -3.76465607
-0.13193120 -0.05793419 -3.73191500
-0.15450780 -0.05918628 -3.77391696
-0.61641628 -0.03631723 -3.75464511
-0.14045370 0.00591499 -3.71908808
-0.62005907 -0.08152656 -3.72337890
-0.60973072 -0.09113377 -3.72167611
-0.58686149 -0.03565953 -3.70179105
-0.62339830 -0.08857910 -3.73838091
-0.57297128 -0.11162490 -3.74935603
-0.56214571 -0.14038350 -3.75503707
-0.55876982 -0.17934600 -3.76247001
-0.55937111 -0.14434440 -3.70729399
-0.57874238 -0.14828900 -3.74475908
-0.52259737 -0.18588310 -3.74898195
-0.51518661 -0.21882670 -3.70240998
-0.46843359 -0.19170620 -3.73657107
-0.43889129 -0.23853511 -3.74721694
-0.43585929 -0.24907410 -3.74975300
-0.35269231 -0.22116999 -3.71493196
-0.40761080 -0.21895830 -3.73798394
-0.38698721 -0.26670119 -3.72419810
-0.29257581 -0.21298890 -3.72053909
-0.31301320 -0.22356690 -3.71862698
-0.34555569 -0.25892749 -3.70862293
-0.30487221 -0.25868860 -3.70822597
-0.26048040 -0.21961400 -3.75291109
-0.22342341 -0.20671630 -3.71588993
-0.25329471 -0.24726050 -3.71064091
-0.27503309 -0.22677280 -3.70779610
-0.22603580 -0.20799750 -3.69524908
-0.17186239 -0.13516919 -3.71306801
-0.17728050 -0.14590640 -3.73978710
-0.18385860 -0.15653880 -3.71569705
-0.14667130 -0.13026710 -3.72810602
-0.16225010 -0.09948377 -3.72074199
-0.12803130 -0.10791610 -3.71055102
-0.12297180 -0.06661317 -3.72787309
-0.11581110 -0.02974777 -3.70744300
-0.14489760 -0.03609143 -3.74124193
-0.60989207 -0.03226271 -3.70632100
-0.12149030 -0.02006338 -3.68587899
-0.59212297 -0.09771737 -3.68164706
-0.64339989 -0.10787030 -3.70725107
-0.62263763 -0.05986535 -3.67215800
-0.61462748 -0.05947065 -3.70440793
-0.63359702 -0.11698420 -3.69914699
-0.58504659 -0.14858709 -3.71402597
-0.58327329 -0.15050890 -3.71014309
-0.56769508 -0.19276240 -3.68629003
-0.54931581 -0.17316920 -3.68069196
-0.56379718 -0.14093950 -3.70068789
-0.46883020 -0.20524350 -3.67909908
-0.50363171 -0.23786330 -3.70072293
-0.55086309 -0.22847959 -3.69327688
-0.50608307 -0.20442159 -3.71011806
-0.40548950 -0.23932511 -3.67771101
-0.40769169 -0.24495010 -3.68750811
-0.45283851 -0.27347031 -3.67311001
-0.36952859 -0.28176689 -3.68665409
-0.33542371 -0.26554871 -3.68066907
-0.27352491 -0.26164070 -3.72526002
-0.29590079 -0.22761969 -3.70715404
-0.21562500 -0.21387850 -3.73039603
-0.22633860 -0.22424220 -3.68747091
-0.19103110 -0.19092070 -3.72628689
-0.16487651 -0.13169511 -3.69513607
-0.13734341 -0.10773510 -3.72037411
-0.10680130 -0.10557860 -3.71189594
-0.10967350 -0.03309968 -3.67570210
-0.10657600 -0.03718393 -3.67885995
-0.63348699 -0.03984505 -3.70791197
-0.64808708 -0.03890356 -3.66461205
-0.10091310 0.00637204 -3.69699407
-0.63974082 -0.03580204 -3.64327407
-0.63827091 -0.05685765 -3.69003010
-0.65826142 -0.09660910 -3.68624902
-0.60479850 -0.14280960 -3.63347602
-0.63833088 -0.13456190 -3.66645193
-0.60785621 -0.15487149 -3.64673996
-0.60671562 -0.15084840 -3.66883111
-0.54528141 -0.20371470 -3.69820094
-0.58867061 -0.17421371 -3.65546989
-0.52017742 -0.26375601 -3.64833212
-0.50469398 -0.20873970 -3.64269900
-0.50319391 -0.22714791 -3.68036008
-0.49194360 -0.28867581 -3.66981792
-0.42913461 -0.28423631 -3.69905996
-0.41186529 -0.27381930 -3.67816710
-0.37856081 -0.28138500 -3.68249011
-0.27300179 -0.24816950 -3.67479110
-0.31276301 -0.27881640 -3.65700102
-0.29635379 -0.29381821 -3.65590811
-0.26108709 -0.27460581 -3.64802504
-0.27131620 -0.22934100 -3.65546608
-0.22593220 -0.23452550 -3.64997602
-0.20080280 -0.24305800 -3.64078403
-0.18563689 -0.15565650 -3.67339396
-0.17457861 -0.21720780 -3.69154000
-0.17922340 -0.18781219 -3.63624501
-0.10987560 -0.11287350 -3.65270209
-0.15014610 -0.12099070 -3.66550589
-0.08127555 -0.04599954 -3.66723204
-0.11504860 -0.04025192 -3.64881611
-0.13451511 -0.10919110 -3.65344310
-0.13438129 -0.08611288 -3.68369007
-0.66325277 -0.03534807 -3.62628698
-0.67799139 -0.03166153 -3.65824199
-0.11137160 -0.03341365 -3.66896701
-0.06782973 -0.00579788 -3.65612888
-0.62972552 -0.08055464 -3.64929008
-0.64452273 -0.04274818 -3.64584589
-0.63595730 -0.13753350 -3.64875388
-0.63276809 -0.15229900 -3.62493491
-0.60359412 -0.18174329 -3.60264301
-0.57034338 -0.16610891 -3.61961699
-0.58560568 -0.22720270 -3.61183000
-0.52036607 -0.22914609 -3.61755109
-0.45616081 -0.27628139 -3.61569309
-0.45999610 -0.25886580 -3.62757802
-0.49339911 -0.25459900 -3.60847902
-0.49167591 -0.25301749 -3.65526390
-0.34682250 -0.27544850 -3.63694596
-0.27017960 -0.30737841 -3.65215993
-0.28628811 -0.27093771 -3.64646292
-0.31975389 -0.26798901 -3.65168309
-0.22251759 -0.29300991 -3.63259506
-0.21478930 -0.26002610 -3.62128496
-0.16943680 -0.20266990 -3.60028791
-0.17139401 -0.17577469 -3.64635301
-0.12787320 -0.18661670 -3.65111303
-0.10351080 -0.13971220 -3.63917089
-0.10588600 -0.04114516 -3.64767504
-0.12200090 -0.07118203 -3.64256001
-0.07095546 -0.07530351 -3.64326596
-0.65025198 -0.03186699 -3.64796090
-0.66807050 -0.00134094 -3.62301898
-0.07294369 -0.01663091 -3.64479995
-0.07560243 0.00396503 -3.62852693
-0.67494720 -0.08458886 -3.58676791
-0.66648817 -0.03491277 -3.60885000
-0.65688992 -0.03411932 -3.61241293
-0.63552701 -0.17185010 -3.61604595
-0.62971270 -0.14520690 -3.58535409
-0.60027683 -0.24989709 -3.58960891
-0.54764688 -0.25125739 -3.57585406
-0.51010168 -0.24228580 -3.61846900
-0.48260501 -0.26598030 -3.61265111
-0.50677848 -0.29289070 -3.60862494
-0.42218211 -0.29664660 -3.61958694
-0.45814401 -0.29970849 -3.62235689
-0.39006129 -0.31772360 -3.61256504
-0.33090290 -0.29403010 -3.57787299
-0.33899960 -0.28436509 -3.59300303
-0.29478800 -0.28065911 -3.59957790
-0.17814420 -0.27877060 -3.61419797
-0.14640810 -0.25646240 -3.59621811
-0.09165309 -0.14091840 -3.59428310
-0.08634014 -0.03978549 -3.62647510
-0.09037201 -0.08260658 -3.59328389
-0.03935558 -0.06073762 -3.56895089
-0.67970288 -0.03535235 -3.59092689
-0.72002143 -0.00768031 -3.60953903
-0.03434442 -0.02500824 -3.57662201
-0.07805088 -0.00225330 -3.56443501
-0.70562297 -0.08896220 -3.59593296
-0.67652798 -0.13773011 -3.55799890
-0.68511778 -0.08713230 -3.56229711
-0.68167758 -0.14110591 -3.53788304
-0.65332818 -0.18699761 -3.56417799
-0.64258069 -0.22246329 -3.58430600
-0.56401062 -0.24691510 -3.57138801
-0.59553713 -0.27149740 -3.56524110
-0.63651228 -0.20980270 -3.58210707
-0.53264493 -0.27479649 -3.56584597
-0.54598629 -0.28006029 -3.55020499
-0.57171708 -0.25648329 -3.57601905
-0.47539821 -0.34043160 -3.58480906
-0.46545321 -0.33439720 -3.54688692
-0.43746841 -0.29908609 -3.55720210
-0.42835209 -0.33350801 -3.54960799
-0.42529431 -0.34265459 -3.55209899
-0.34792930 -0.30656010 -3.60351801
-0.38990030 -0.30332789 -3.56077909
-0.32894880 -0.34766701 -3.56369710
-0.33120200 -0.34645781 -3.54174399
-0.25366339 -0.30694860 -3.58132911
-0.27995849 -0.32307139 -3.56929302
-0.21480970 -0.32094470 -3.53660107
-0.18516380 -0.27886730 -3.55588794
-0.23219550 -0.26918039 -3.57914209
-0.13913029 -0.19498549 -3.59480810
-0.10899610 -0.19072060 -3.54675698
-0.18188390 -0.24882139 -3.57616091
-0.18486410 -0.21765220 -3.56391311
-0.08048434 -0.19523790 -3.53403497
-0.09682376 -0.18910120 -3.59495902
-0.09224991 -0.16904630 -3.59013104
-0.07596117 -0.11117870 -3.55943990
-0.08229980 -0.07315221 -3.55993199
-0.06027901 -0.05791180 -3.55084610
-0.07297232 -0.13262680 -3.55355692
-0.05689698 -0.09283374 -3.57098007
-0.73458451 -0.02702940 -3.57633400
-0.05993143 -0.04713981 -3.56149793
-0.69812882 -0.10104090 -3.51760602
-0.71551782 -0.07712486 -3.56842399
-0.67945212 -0.17208201 -3.55644202
-0.69018853 -0.16402391 -3.53379798
-0.61756837 -0.20614360 -3.52689505
-0.57760268 -0.25513679 -3.54289699
-0.55381590 -0.29264751 -3.50728202
-0.49781960 -0.29568169 -3.51569390
-0.42332190 -0.34214011 -3.56515503
-0.50235748 -0.34781459 -3.52507997
-0.48589590 -0.32656619 -3.53452110
-0.40985250 -0.36180329 -3.53778696
-0.30643669 -0.32002541 -3.52373910
-0.24298960 -0.30080459 -3.54563308
-0.26004431 -0.31759021 -3.52147794
-0.23260680 -0.29546091 -3.50466895
-0.19301631 -0.28165391 -3.52060890
-0.18527010 -0.29554921 -3.52238894
-0.10360750 -0.20720240 -3.52612996
-0.12150920 -0.21553290 -3.51046991
-0.16843590 -0.27761051 -3.54366803
-0.09973585 -0.18041670 -3.55010509
-0.03227027 -0.13149390 -3.51138997
-0.02949097 -0.07347070 -3.54698706
-0.06995182 -0.10284290 -3.53336501
-0.07233816 -0.11793280 -3.51404810
-0.74850512 0.00431231 -3.54816198
-0.00773907 -0.04023586 -3.53969407
-0.72992802 -0.14019740 -3.51870704
-0.74261558 -0.01410294 -3.51247096
-0.75223130 -0.03137261 -3.50486803
-0.72882408 -0.08493552 -3.47247601
-0.72343290 -0.06216204 -3.47679090
-0.69358599 -0.20001660 -3.52574110
-0.66743118 -0.18669710 -3.52705002
-0.68022817 -0.17925310 -3.47358608
-0.63823438 -0.25324541 -3.50806689
-0.62530482 -0.24973699 -3.49809694
-0.50861591 -0.30564630 -3.50932002
-0.53193349 -0.31113130 -3.52922106
-0.55487633 -0.30938271 -3.47937298
-0.48254141 -0.32343191 -3.51839805
-0.44385901 -0.31802610 -3.53254700
-0.41124991 -0.36916339 -3.48005700
-0.39982969 -0.37159589 -3.50962591
-0.34867021 -0.37318671 -3.51018500
-0.29205510 -0.34488899 -3.48416901
-0.19256420 -0.34526789 -3.48982692
-0.11059130 -0.25056800 -3.47603607
-0.13021810 -0.27513260 -3.48645306
-0.08780147 -0.21213999 -3.51641297
-0.12688120 -0.25683331 -3.47889805
-0.04625964 -0.15358450 -3.50255704
-0.07686686 -0.17996870 -3.51540303
-0.07393913 -0.19760360 -3.51237607
-0.02889859 -0.04584039 -3.48572206
-0.00395244 -0.01384663 -3.50887394
-0.00143587 -0.07933640 -3.51173306
-0.00867373 -0.09764912 -3.51326299
-0.76868892 -0.02969490 -3.46883106
-0.74089772 -0.10430830 -3.45508003
-0.71118200 -0.09443958 -3.44680309
-0.75351071 -0.08833376 -3.45534205
-0.74060619 -0.09367566 -3.48276997
-0.65280449 -0.19939360 -3.48381901
-0.69951057 -0.16424040 -3.48372793
-0.70537758 -0.15439610 -3.49056602
-0.59845078 -0.28025299 -3.50509691
-0.64627492 -0.27216399 -3.45877194
-0.63146102 -0.26238021 -3.46578908
-0.69424701 -0.24355830 -3.49436212
-0.56552052 -0.30702740 -3.49727011
-0.57950532 -0.30216280 -3.48100805
-0.60212082 -0.33008781 -3.47252202
-0.49655670 -0.37973380 -3.43958902
-0.52158779 -0.34345961 -3.47212911
-0.42025951 -0.34997231 -3.46894193
-0.43226770 -0.36759749 -3.49438596
-0.35874641 -0.39166111 -3.50971794
-0.37729111 -0.37897429 -3.49688196
-0.26154160 -0.35945311 -3.46106505
-0.29257080 -0.33399001 -3.47601700
-0.29616520 -0.35352641 -3.45643592
-0.16397379 -0.32583940 -3.50194311
-0.13248999 -0.30457371 -3.44515991
-0.19116430 -0.33987921 -3.46015191
-0.21689110 -0.36196259 -3.47285700
-0.11699060 -0.28925729 -3.45248199
-0.10480620 -0.26623511 -3.48374891
-0.06209651 -0.20320410 -3.49208808
-0.05996557 -0.21499330 -3.47149491
-0.06601816 -0.17287330 -3.46243501
-0.06945667 -0.16421290 -3.45228791
-0.02466153 -0.11274910 -3.46131492
0.00074020 -0.09862223 -3.49246097
0.00178063 -0.05684936 -3.47092199
-0.76997077 -0.07114866 -3.46426392
-0.03460700 -0.11421460 -3.43509102
-0.00743508 -0.04804261 -3.41829705
-0.71766579 -0.11843780 -3.42328691
-0.78012061 -0.04917476 -3.43443799
-0.73444939 -0.16190080 -3.45825195
-0.73823363 -0.16168649 -3.41489196
-0.69049889 -0.26715150 -3.44462109
-0.65325022 -0.26073799 -3.46192193
-0.61704552 -0.32149661 -3.44678402
-0.57435042 -0.34135079 -3.42043090
-0.52457952 -0.35884351 -3.45094609
-0.51745802 -0.37662879 -3.46260810
-0.47279781 -0.38141879 -3.46911311
-0.32360271 -0.36383989 -3.43995500
-0.29303321 -0.37934560 -3.43867111
-0.16514760 -0.30042639 -3.43147492
-0.10070270 -0.27569410 -3.46995711
-0.00388793 -0.09862593 -3.41616607
-0.74414831 -0.05123141 -3.39608002
-0.75455850 -0.06107807 -3.45350003
0.00492141 -0.07666971 -3.41257501
-0.74588168 -0.10816790 -3.39565802
-0.73858988 -0.13702551 -3.40796494
-0.78979683 -0.05286051 -3.39984202
-0.75244641 -0.06784879 -3.43855405
-0.71721828 -0.15928210 -3.41200900
-0.73798019 -0.15969020 -3.39829993
-0.68406647 -0.21118380 -3.43830895
-0.65088302 -0.28641379 -3.42086101
-0.62708950 -0.29564431 -3.38956594
-0.68886632 -0.26674211 -3.39288211
-0.52800000 -0.36677659 -3.42494893
-0.63477212 -0.30185241 -3.42382312
-0.50847089 -0.36484730 -3.40619707
-0.46626559 -0.40649751 -3.40895510
-0.36917710 -0.37527820 -3.40583801
-0.37893939 -0.38851920 -3.39183402
-0.26272079 -0.39387271 -3.40954399
-0.22731531 -0.39316189 -3.43381596
-0.27207991 -0.37496501 -3.38014102
-0.16207670 -0.33175561 -3.42679310
-0.14209740 -0.33460441 -3.39475107
-0.19902520 -0.34647110 -3.37086296
-0.10329230 -0.29474881 -3.39566493
-0.09349926 -0.27143729 -3.42719507
-0.02429432 -0.19307150 -3.39685106
-0.06554460 -0.20007350 -3.41423512
0.03945351 -0.09424390 -3.40887904
0.02065630 -0.05158453 -3.39854789
-0.00023242 -0.10836650 -3.39357901
-0.76801509 -0.09155606 -3.39823294
-0.78320432 -0.06084519 -3.40773201
0.02583325 -0.09287746 -3.42091203
0.04931598 -0.09302214 -3.40213299
-0.75175971 -0.07765926 -3.40589690
-0.78467429 -0.08268886 -3.39667892
-0.79100579 -0.13701960 -3.35601997
-0.71516669 -0.22775130 -3.38206005
-0.76464492 -0.16706580 -3.37545705
-0.75255430 -0.15890050 -3.36352801
-0.66476649 -0.30860561 -3.37061906
-0.58335757 -0.33800969 -3.36330700
-0.53015238 -0.39515650 -3.37081099
-0.38274071 -0.39300010 -3.36891007
-0.25972590 -0.38247091 -3.40094495
-0.22236750 -0.39732620 -3.36271906
-0.28547731 -0.39631251 -3.36791301
-0.16278981 -0.34629229 -3.35095501
-0.16714481 -0.31765300 -3.38716602
-0.12257950 -0.36837381 -3.35635900
-0.07846142 -0.31217530 -3.35547900
-0.05339187 -0.25175229 -3.40056801
-0.05120184 -0.25733960 -3.39188790
-0.04230108 -0.20374060 -3.36900806
0.00774662 -0.19198211 -3.38195896
0.03314966 -0.13736349 -3.39258099
0.00999376 -0.09514359 -3.38775492
0.03928731 -0.06832978 -3.38265491
0.02628406 -0.07794972 -3.39447594
-0.80471438 -0.08622377 -3.32615900
-0.76524699 -0.10786790 -3.35092497
0.03537507 -0.08905376 -3.37213993
-0.76464891 -0.09911617 -3.34968901
-0.64890927 -0.31275049 -3.35116506
-0.59744310 -0.40451741 -3.33522201
-0.26355359 -0.39924139 -3.35758090
-0.31081480 -0.39992711 -3.32742810
-0.14284660 -0.34197840 -3.34996510
-0.10830030 -0.31429300 -3.36751795
-0.79391563 -0.11220880 -3.34366393
0.06534762 -0.06395666 -3.32429194
-0.78174990 -0.16281649 -3.29901910
-0.78808689 -0.07055908 -3.29365206
-0.78442079 -0.18718100 -3.27388811
-0.73274428 -0.22922000 -3.30649710
-0.70799619 -0.30366531 -3.30774212
-0.63858432 -0.33835110 -3.29440594
-0.67922223 -0.34585661 -3.28724408
-0.58888412 -0.40031439 -3.31672597
-0.54756701 -0.41425711 -3.29957795
-0.59299642 -0.34358320 -3.31224608
-0.54712683 -0.43983361 -3.31264210
-0.51233041 -0.42942441 -3.34000802
-0.46639290 -0.42272669 -3.29024196
-0.33768520 -0.43467119 -3.30013704
-0.24705391 -0.42337671 -3.30050397
-0.16923741 -0.38017011 -3.28915596
-0.13588050 -0.33513620 -3.28386903
-0.04182696 -0.23066470 -3.29472494
0.03965798 -0.09808046 -3.31258893
0.03145900 -0.14531261 -3.32577395
-0.79957938 -0.07586153 -3.28746104
-0.79128742 -0.05885761 -3.31653404
0.05196214 -0.09686728 -3.29776597
-0.77232921 -0.14425820 -3.29605794
-0.79970658 -0.09936973 -3.28345799
-0.76921189 -0.24666750 -3.26153898
-0.80222923 -0.17259140 -3.24540901
-0.65208632 -0.32081640 -3.28928399
-0.72856653 -0.28612059 -3.25388098
-0.60712671 -0.36178070 -3.28143907
-0.62839949 -0.39127991 -3.25666094
-0.56365001 -0.38992471 -3.24506402
-0.49514300 -0.44673249 -3.29585004
-0.40629289 -0.42331490 -3.29786396
-0.35437259 -0.46519101 -3.30089402
-0.29848069 -0.40758240 -3.29542899
-0.24747109 -0.41874981 -3.24868894
-0.15386771 -0.39013430 -3.30151701
-0.14111079 -0.38742459 -3.24897408
-0.17930301 -0.40195021 -3.28184795
-0.07991190 -0.34787920 -3.24736404
-0.05958318 -0.30098099 -3.26163101
0.00131635 -0.17473631 -3.29431701
0.00051080 -0.22143210 -3.27549696
0.07583412 -0.07433144 -3.23458099
0.07162537 -0.08674337 -3.25289011
0.07305153 -0.16092160 -3.27398992
-0.82099521 -0.13503850 -3.25115299
-0.80547458 -0.12936020 -3.21427393
-0.77254093 -0.22305690 -3.20865989
-0.76153642 -0.23686790 -3.23685288
-0.73521948 -0.30542779 -3.25800705
-0.57121438 -0.43256840 -3.21423602
-0.53005940 -0.44016841 -3.22125602
-0.47516751 -0.46828529 -3.26123190
-0.41338119 -0.44103411 -3.21375108
-0.10525290 -0.35130480 -3.26694489
-0.01025064 -0.26965001 -3.23982906
-0.09527040 -0.31325361 -3.26318407
0.09201840 -0.10967920 -3.21806312
0.05243599 -0.07474608 -3.22579002
-0.83632308 -0.09083008 -3.20310593
-0.83842969 -0.09950938 -3.20232105
-0.83052558 -0.13722600 -3.18735600
-0.77166909 -0.22413090 -3.21720600
-0.76210600 -0.27261239 -3.19654799
-0.73694831 -0.28815070 -3.20568204
-0.65518308 -0.36297539 -3.20954490
-0.50531030 -0.42640021 -3.20389199
-0.19984320 -0.44795021 -3.20331693
-0.29504001 -0.45265850 -3.17715597
-0.19163990 -0.43876761 -3.19248796
-0.05397396 -0.35926241 -3.18539190
0.06930400 -0.22978070 -3.22232699
0.08992125 -0.07635435 -3.20271897
-0.81332779 -0.07461162 -3.19703889
-0.82222402 -0.11112030 -3.19406390
-0.53491497 -0.47210920 -3.18065500
-0.34513190 -0.45463699 -3.17473292
-0.38127440 -0.48880839 -3.16055107
-0.09563129 -0.37259030 -3.17146993
-0.03901471 -0.35121781 -3.16838789
-0.85499352 -0.10595280 -3.13145900
0.06340683 -0.08346516 -3.15223789
0.10848060 -0.09212026 -3.13148904
-0.81520540 -0.17306970 -3.12844300
-0.86022031 -0.09722460 -3.16223001
-0.77005231 -0.25907210 -3.17506003
-0.67435491 -0.35086229 -3.16795111
-0.74700660 -0.32559040 -3.13813496
-0.63455182 -0.41028270 -3.13480902
-0.45423570 -0.44659159 -3.14889908
-0.53676689 -0.47758529 -3.15272689
-0.20972970 -0.45269120 -3.14411807
-0.11997950 -0.37431031 -3.12213302
-0.14760570 -0.40739009 -3.14001989
0.01568868 -0.32544780 -3.14859796
-0.02951569 -0.37997249 -3.13977695
-0.07270156 -0.38935590 -3.13542795
0.07870955 -0.23626560 -3.14553690
0.11472350 -0.12960200 -3.14876199
0.09843588 -0.15571390 -3.12136793
0.11554570 -0.12551410 -3.13395500
-0.84086257 -0.09693874 -3.08409500
-0.76226848 -0.29063901 -3.12737608
-0.71839070 -0.36183339 -3.12883401
-0.54823703 -0.45931420 -3.07745695
-0.27834931 -0.46754599 -3.09746504
-0.20793070 -0.47518441 -3.10535789
-0.10614200 -0.39783290 -3.08290291
0.02136081 -0.32154360 -3.07334304
-0.05921738 -0.35696381 -3.09607005
0.04296040 -0.28090209 -3.08303094
0.10630010 -0.12431110 -3.11008191
-0.81751031 -0.18764290 -3.06084490
-0.75786912 -0.34526479 -3.05997992
-0.67809433 -0.38723630 -3.08658791
-0.68513370 -0.37415490 -3.07744789
-0.65644932 -0.39436960 -3.06253409
-0.61213589 -0.42383391 -3.09315300
-0.54075742 -0.49250010 -3.03238702
-0.44377720 -0.47882190 -3.07662201
-0.41776261 -0.49317881 -3.04882598
-0.30599129 -0.46944779 -3.05724502
-0.26873311 -0.51254112 -3.06477499
-0.21460380 -0.48817351 -3.05359697
-0.07166925 -0.36777091 -3.06343007
0.05122848 -0.29214409 -3.06986403
0.08917027 -0.11218930 -3.05715394
0.11707330 -0.09176437 -3.06115294
-0.84897500 -0.07426531 -3.02940512
-0.77196962 -0.30042031 -3.00701904
-0.73577303 -0.33370179 -3.00984502
-0.71595168 -0.38233101 -3.00924110
-0.51052332 -0.49979419 -3.00065994
-0.45067790 -0.49072450 -3.02469301
-0.38635689 -0.52684599 -3.01352811
-0.34089670 -0.49861240 -3.00777793
0.09293735 -0.09328851 -3.00977993
0.09558664 -0.12399610 -2.99395895
0.11448140 -0.11248710 -3.05303693
0.13831730 -0.03321663 -2.99136400
-0.87095779 -0.07684560 -2.99135494
-0.77409983 -0.29150620 -2.99703097
-0.70843959 -0.40532240 -2.99314404
-0.35711461 -0.48804730 -2.98052812
-0.40422189 -0.51796317 -2.99542904
-0.41152120 -0.51790649 -2.99875808
-0.23560090 -0.48699179 -2.97325706
-0.28542370 -0.49904740 -2.98041892
0.07292727 -0.20903510 -2.96857309
0.07112341 -0.28355151 -3.00005102
0.11472180 -0.08275581 -3.00086904
0.10812790 -0.15002540 -3.00673294
-0.87606889 -0.16674130 -2.97253609
-0.75047380 -0.36054951 -2.94263911
-0.45462111 -0.48960030 -2.93043804
-0.34837919 -0.49292821 -2.95584893
-0.28072861 -0.50620031 -2.96438599
