-0.33755863 0.10009265 -2.74016047 -0.101683 0.676415 0.729467
-0.40446079 0.10047269 -2.74984813 -0.101683 0.676415 0.729467
-0.40035665 0.08082986 -2.73110533 -0.101628 0.667208 0.737906
-0.33619058 0.09354448 -2.73391271 -0.101628 0.667208 0.737906
-0.46381295 0.07035470 -2.74158597 -0.350476 0.608035 0.712362
-0.52655947 0.06211734 -2.76535416 -0.350476 0.608035 0.712362
-0.58120286 0.02363968 -2.77097845 -0.576971 0.506322 0.640892
-0.63573730 0.00834942 -2.80788517 -0.576971 0.506322 0.640892
-0.52356160 0.04208136 -2.74681902 -0.346546 0.600354 0.720750
-0.46281374 0.06367564 -2.73540735 -0.346546 0.600354 0.720750
-0.68171191 -0.03686237 -2.82633185 -0.765245 0.381810 0.518287
-0.72453880 -0.05715966 -2.87453747 -0.765245 0.381810 0.518287
-0.63370764 -0.01221466 -2.78980255 -0.574173 0.500086 0.648259
-0.58052647 0.01678467 -2.76495075 -0.574173 0.500086 0.648259
-0.72327399 -0.07835054 -2.85712099 -0.765463 0.372168 0.524935
-0.68129039 -0.04392648 -2.82052612 -0.765463 0.372168 0.524935
-0.75847745 -0.10702038 -2.90386558 -0.903544 0.238700 0.355853
-0.78690076 -0.12993670 -2.96075892 -0.903544 0.238700 0.355853
-0.80625737 -0.18204355 -2.99828577 -0.982899 0.090451 0.160399
-0.81856453 -0.20501208 -3.06066275 -0.982899 0.090451 0.160399
-0.78614438 -0.15181041 -2.94417739 -0.904041 0.229296 0.360740
-0.75822532 -0.11431193 -2.89833832 -0.904041 0.229296 0.360740
-0.81802547 -0.22757816 -3.04502726 -0.982501 0.077976 0.169149
-0.80607760 -0.18956590 -2.99307394 -0.982501 0.077976 0.169149
-0.81711280 -0.28602099 -3.16060495 -0.996906 -0.061698 -0.048709
0.13788640 -0.03511119 -3.08888960 0.888003 0.453006 0.078964
0.14002904 -0.03993654 -3.08536267 0.888003 0.453006 0.078964
-0.81675446 -0.29674816 -3.15381646 -0.996770 -0.063854 -0.048702
-0.81657541 -0.30211139 -3.15042257 -0.996507 -0.070636 -0.044555
0.14217168 -0.04476213 -3.08183575 0.888003 0.453006 0.078964
0.14645705 -0.05441332 -3.07478189 0.890929 0.446159 0.084784
0.12923655 -0.03259182 -3.01327038 0.896644 0.430891 0.101796
0.14931011 -0.06130695 -3.06938028 0.896644 0.430891 0.101796
0.09828126 0.00106263 -2.96629620 0.778549 0.552467 0.297727
0.05644423 0.03965688 -2.92845821 0.778549 0.552467 0.297727
0.01916647 0.04689550 -2.87228012 0.608818 0.635653 0.474643
-0.03484684 0.07687759 -2.84303617 0.608818 0.635653 0.474643
0.06442958 0.01937056 -2.91148090 0.781029 0.545607 0.303822
0.10094297 -0.00569916 -2.96063757 0.781029 0.545607 0.303822
-0.02763462 0.05685258 -2.82541513 0.610738 0.627563 0.482870
0.02157038 0.04022098 -2.86640692 0.610738 0.627563 0.482870
-0.08360308 0.07533479 -2.79593587 0.398202 0.682397 0.613000
-0.14633536 0.09566903 -2.77797031 0.398202 0.682397 0.613000
-0.14004290 0.07575464 -2.75987768 0.399259 0.674267 0.621254
-0.08150572 0.06869698 -2.78990531 0.399259 0.674267 0.621254
-0.20301044 0.08443785 -2.74247646 0.156039 0.689297 0.707476
-0.27040851 0.09474778 -2.73770356 0.156039 0.689297 0.707476
-0.33090138 0.07358336 -2.71555281 -0.098451 0.659767 0.744993
-0.39859372 0.07417679 -2.72498560 -0.098451 0.659767 0.744993
-0.26511943 0.07478642 -2.71934366 0.156016 0.683137 0.713431
-0.20124745 0.07778430 -2.73635697 0.156016 0.683137 0.713431
-0.45854366 0.04351258 -2.71700239 -0.346928 0.591244 0.728060
-0.52213848 0.03536105 -2.74068451 -0.346928 0.591244 0.728060
-0.39432359 0.05401349 -2.70658088 -0.098181 0.652101 0.751748
-0.32947820 0.06686282 -2.70941830 -0.098181 0.652101 0.751748
-0.57722056 -0.00372124 -2.74672747 -0.573257 0.489201 0.657312
-0.63260591 -0.01904941 -2.78372860 -0.573257 0.489201 0.657312
-0.51883256 0.01485491 -2.72246099 -0.345778 0.582790 0.735387
-0.45744169 0.03667760 -2.71092844 -0.345778 0.582790 0.735387
-0.67882907 -0.06489277 -2.80269718 -0.764253 0.361844 0.533841
-0.72245371 -0.08533883 -2.85117865 -0.764253 0.361844 0.533841
-0.63014472 -0.04001594 -2.76589966 -0.572584 0.481911 0.663257
-0.57640028 -0.01070952 -2.74078465 -0.572584 0.481911 0.663257
-0.75643063 -0.13582492 -2.88109016 -0.902932 0.220263 0.369050
-0.78554606 -0.15898085 -2.93842840 -0.902932 0.220263 0.369050
-0.72065890 -0.10685182 -2.83393049 -0.763369 0.354942 0.539707
-0.67823100 -0.07206321 -2.79694819 -0.763369 0.354942 0.539707
-0.80472624 -0.21167421 -2.97655368 -0.981806 0.070728 0.176222
-0.81757510 -0.23494697 -3.03952074 -0.981806 0.070728 0.176222
-0.78419471 -0.18108940 -2.92190838 -0.902232 0.210666 0.376293
-0.75598037 -0.14319396 -2.87558413 -0.902232 0.210666 0.376293
-0.81641352 -0.25765896 -3.02382565 -0.981673 0.060981 0.180551
-0.80433905 -0.21924448 -2.97132254 -0.981673 0.060981 0.180551
-0.81582987 -0.32040930 -3.13840294 -0.997144 -0.061313 -0.044102
-0.81618834 -0.30968165 -3.14519119 -0.996630 -0.070338 -0.042203
-0.81565082 -0.32577229 -3.13500905 -0.996124 -0.081294 -0.033602
0.15755481 -0.08307862 -3.05380726 0.900927 0.420432 0.107552
0.13198477 -0.03984904 -3.00807953 0.900927 0.420432 0.107552
-0.81358755 -0.34923697 -3.11985493 -0.994786 -0.099369 -0.022931
-0.81949627 -0.30099034 -3.07333612 -0.994786 -0.099369 -0.022931
0.14007187 -0.06098294 -2.99188924 0.901717 0.419500 0.104527
0.16025054 -0.09012365 -3.04841042 0.901717 0.419500 0.104527
0.10903001 -0.02683258 -2.94444752 0.784774 0.536448 0.310408
0.06712538 0.01232576 -2.90608406 0.784774 0.536448 0.310408
0.07472467 -0.00847292 -2.88923740 0.788413 0.527202 0.316958
0.11156324 -0.03376579 -2.93883181 0.788413 0.527202 0.316958
0.02916974 0.01942253 -2.84956002 0.617790 0.617790 0.486489
-0.02510148 0.04991937 -2.81979918 0.617790 0.617790 0.486489
-0.01815969 0.02934313 -2.80240464 0.618309 0.611570 0.493636
0.03148371 0.01256347 -2.84376144 0.618309 0.611570 0.493636
-0.07456392 0.04812074 -2.77251077 0.403050 0.665116 0.628626
-0.13772893 0.06889558 -2.75407910 0.403050 0.665116 0.628626
-0.13156915 0.04841375 -2.73628330 0.405903 0.657729 0.634535
-0.07251060 0.04129314 -2.76657867 0.405903 0.657729 0.634535
-0.19508773 0.05730247 -2.71856117 0.159260 0.674959 0.720462
-0.26306617 0.06795883 -2.71341133 0.159260 0.674959 0.720462
-0.32417202 0.04634070 -2.69139481 -0.095008 0.644592 0.758601
-0.39255488 0.04717278 -2.70057273 -0.095008 0.644592 0.758601
-0.25775999 0.04743671 -2.69538808 0.162822 0.664983 0.728894
-0.19331896 0.05046153 -2.71255302 0.162822 0.664983 0.728894
-0.38811505 0.02647901 -2.68251181 -0.092011 0.635311 0.766755
-0.32269210 0.03944254 -2.68537426 -0.092011 0.635311 0.766755
-0.45300210 0.01598406 -2.69286728 -0.345232 0.572146 0.743951
-0.51735258 0.00795674 -2.71644020 -0.345232 0.572146 0.743951
-0.51373327 -0.01302862 -2.69853354 -0.341976 0.565639 0.750403
-0.45179546 0.00898862 -2.68689799 -0.341976 0.565639 0.750403
-0.57278097 -0.03169489 -2.72287774 -0.570580 0.473531 0.670975
-0.62893808 -0.04701114 -2.75993037 -0.570580 0.473531 0.670975
-0.67532980 -0.09344029 -2.77937698 -0.761929 0.344567 0.548395
-0.71969187 -0.11397791 -2.82807326 -0.761929 0.344567 0.548395
-0.62603700 -0.06838822 -2.74235892 -0.570688 0.463580 0.677797
-0.57181382 -0.03882074 -2.71702027 -0.570688 0.463580 0.677797
-0.71735752 -0.13581967 -2.81099606 -0.760895 0.337637 0.554112
-0.67455161 -0.10072112 -2.77368426 -0.760895 0.337637 0.554112
-0.75364590 -0.16503572 -2.85850692 -0.900864 0.201643 0.384427
-0.78341663 -0.18837023 -2.91621590 -0.900864 0.201643 0.384427
-0.78145921 -0.21071839 -2.89975762 -0.900387 0.192836 0.390023
-0.75299346 -0.17248535 -2.85302067 -0.900387 0.192836 0.390023
-0.80238187 -0.24159241 -2.95486403 -0.980995 0.051255 0.187140
-0.81576097 -0.26510859 -3.01833940 -0.980995 0.051255 0.187140
-0.81770027 -0.32385182 -3.05757928 -0.994786 -0.099369 -0.022931
-0.81298876 -0.35685778 -3.11460233 -0.994786 -0.099369 -0.022931
-0.81396496 -0.28797007 -3.00258255 -0.980187 0.041584 0.193661
-0.80178308 -0.24921322 -2.94961166 -0.980187 0.041584 0.193661
0.16849551 -0.11189580 -3.03283715 0.904547 0.411158 0.112894
0.14282018 -0.06824040 -2.98669815 0.904547 0.411158 0.112894
-0.81092536 -0.38032317 -3.09944773 -0.993988 -0.108256 -0.016402
-0.81701243 -0.33167362 -3.05252790 -0.993988 -0.108256 -0.016402
0.11912906 -0.05534506 -2.92268848 0.790752 0.519181 0.324288
0.07724667 -0.01566625 -2.88385606 0.790752 0.519181 0.324288
0.15038601 -0.08981943 -2.97055483 0.910652 0.393077 0.127295
0.17101723 -0.11908817 -3.02745628 0.910652 0.393077 0.127295
0.08441752 -0.03697443 -2.86718082 0.795366 0.508460 0.329941
0.12151933 -0.06244802 -2.91712976 0.795366 0.508460 0.329941
0.03865457 -0.00874472 -2.82708645 0.622109 0.601878 0.500722
-0.01576936 0.02224016 -2.79684615 0.622109 0.601878 0.500722
-0.06587213 0.02016497 -2.74945974 0.406825 0.649259 0.642617
-0.12935627 0.04137063 -2.73057699 0.406825 0.649259 0.642617
-0.00913090 0.00111198 -2.77972746 0.624743 0.591064 0.510235
0.04086745 -0.01578760 -2.82138014 0.624743 0.591064 0.510235
-0.12335110 0.02031875 -2.71313357 0.409577 0.638409 0.651675
-0.06387037 0.01314735 -2.74364519 0.409577 0.638409 0.651675
-0.18731380 0.02940965 -2.69510961 0.166044 0.656558 0.735772
-0.25575823 0.04041910 -2.68957353 0.166044 0.656558 0.735772
-0.31737769 0.01835799 -2.66774702 -0.088803 0.624532 0.775934
-0.38634360 0.01945066 -2.67663574 -0.088803 0.624532 0.775934
-0.25044382 0.01933479 -2.67194605 0.168868 0.646567 0.743932
-0.18554229 0.02238107 -2.68923378 0.168868 0.646567 0.743932
-0.44718277 -0.01223493 -2.66924000 -0.341331 0.554866 0.758694
-0.51219571 -0.02010322 -2.69264746 -0.341331 0.554866 0.758694
-0.38173085 -0.00177288 -2.65897775 -0.088679 0.614938 0.783573
-0.31584013 0.01128340 -2.66186070 -0.088679 0.614938 0.783573
-0.56786501 -0.06028032 -2.69948673 -0.568546 0.455170 0.685256
-0.62472069 -0.07554150 -2.73651433 -0.568546 0.455170 0.685256
-0.50824690 -0.04156280 -2.67511392 -0.337173 0.546897 0.766301
-0.44586647 -0.01938820 -2.66339540 -0.337173 0.546897 0.766301
-0.62135351 -0.09731817 -2.71925259 -0.567185 0.444101 0.693596
-0.56674254 -0.06753922 -2.69373274 -0.567185 0.444101 0.693596
-0.67118418 -0.12249756 -2.75642252 -0.759232 0.327227 0.562573
-0.71623504 -0.14307880 -2.80524206 -0.759232 0.327227 0.562573
-0.71332657 -0.16523123 -2.78838015 -0.758805 0.316035 0.569505
-0.67021477 -0.12988210 -2.75080180 -0.758805 0.316035 0.569505
-0.75008500 -0.19463801 -2.83615875 -0.898778 0.183808 0.398010
-0.78048968 -0.21810269 -2.89413691 -0.898778 0.183808 0.398010
-0.77788675 -0.24066567 -2.87777638 -0.897044 0.174786 0.405909
-0.74921715 -0.20215917 -2.83070517 -0.897044 0.174786 0.405909
-0.79918015 -0.27177596 -2.93325114 -0.979251 0.031971 0.200113
-0.81309736 -0.29549122 -2.99712920 -0.979251 0.031971 0.200113
-0.81453991 -0.35465169 -3.03673553 -0.991705 -0.128493 -0.003295
-0.81010139 -0.38798189 -3.09418392 -0.991705 -0.128493 -0.003295
-0.81062484 -0.31846952 -2.98133659 -0.977122 0.022449 0.211493
-0.79835594 -0.27943563 -2.92798686 -0.977122 0.022449 0.211493
0.17716348 -0.13875651 -3.01369905 0.913897 0.383697 0.132550
0.15243477 -0.09637570 -2.96596909 0.913897 0.383697 0.132550
-0.80708849 -0.40850806 -3.08063889 -0.990076 -0.140491 0.003319
-0.81353569 -0.36149406 -3.03222036 -0.990076 -0.140491 0.003319
0.15937766 -0.11837125 -2.94994545 0.913897 0.383697 0.132550
0.17947787 -0.14608812 -3.00835800 0.913897 0.383697 0.132550
0.12846226 -0.08444357 -2.90110612 0.797516 0.500246 0.337226
0.08673179 -0.04430604 -2.86183953 0.797516 0.500246 0.337226
0.04752249 -0.03758550 -2.80496860 0.628332 0.581165 0.517152
-0.00691253 -0.00615382 -2.77425694 0.628332 0.581165 0.517152
0.09338689 -0.06610417 -2.84542799 0.802239 0.486447 0.346095
0.13068068 -0.09170961 -2.89563560 0.802239 0.486447 0.346095
-0.05760330 -0.00851917 -2.72691059 0.413139 0.628834 0.658699
-0.12126213 0.01309681 -2.70755529 0.413139 0.628834 0.658699
-0.00064534 -0.02782083 -2.75752211 0.633039 0.568891 0.525000
0.04961157 -0.04480791 -2.79939032 0.633039 0.568891 0.525000
-0.17973697 0.00077033 -2.67226219 0.172048 0.637947 0.750615
-0.24850881 0.01213145 -2.66628885 0.172048 0.637947 0.750615
-0.11545676 -0.00851464 -2.69058371 0.417497 0.617098 0.666998
-0.05566812 -0.01572299 -2.72125340 0.417497 0.617098 0.666998
-0.24320704 -0.00950360 -2.64918280 0.172113 0.622958 0.763086
-0.17796975 -0.00644135 -2.66656017 0.172113 0.622958 0.763086
-0.31053835 -0.01035094 -2.64475489 -0.085315 0.605879 0.790969
-0.37996358 -0.00898409 -2.65327573 -0.085315 0.605879 0.790969
-0.37517321 -0.03072047 -2.63614750 -0.082256 0.593107 0.800911
-0.30894160 -0.01759648 -2.63904548 -0.082256 0.593107 0.800911
-0.44107604 -0.04112411 -2.64626741 -0.336427 0.536030 0.774266
-0.50665009 -0.04880786 -2.66940451 -0.336427 0.536030 0.774266
-0.50234389 -0.07071638 -2.65236735 -0.334783 0.523800 0.783297
-0.43964064 -0.04842710 -2.64058828 -0.334783 0.523800 0.783297
-0.56243646 -0.08944726 -2.67669582 -0.563460 0.433814 0.703078
-0.61991799 -0.10462046 -2.71357369 -0.563460 0.433814 0.703078
-0.61603582 -0.12676001 -2.69673443 -0.564159 0.421879 0.709749
-0.56114233 -0.09682727 -2.67108274 -0.564159 0.421879 0.709749
-0.66633260 -0.15202117 -2.73396277 -0.755519 0.306378 0.579071
-0.71203256 -0.17261076 -2.78276730 -0.755519 0.306378 0.579071
-0.74566960 -0.22457266 -2.81415796 -0.896178 0.162549 0.412846
-0.77670419 -0.24813652 -2.87226057 -0.896178 0.162549 0.412846
-0.70848489 -0.19502473 -2.76621985 -0.753475 0.295951 0.587102
-0.66515005 -0.15949249 -2.72844696 -0.753475 0.295951 0.587102
-0.79503071 -0.30214810 -2.91180468 -0.976545 0.010576 0.215052
-0.80951643 -0.32604003 -2.97594261 -0.976545 0.010576 0.215052
-0.77337897 -0.27084923 -2.85607839 -0.894067 0.150203 0.422000
-0.74456131 -0.23214388 -2.80876350 -0.894067 0.150203 0.422000
-0.80628645 -0.34905577 -2.96017456 -0.974073 -0.001172 0.226229
-0.79395401 -0.30981994 -2.90654874 -0.974073 -0.001172 0.226229
-0.81030571 -0.38450933 -3.01645255 -0.990076 -0.140491 0.003319
-0.80601180 -0.41617990 -3.07538295 -0.990076 -0.140491 0.003319
0.18562430 -0.16575646 -2.99460053 0.917166 0.372729 0.140995
0.16142651 -0.12492728 -2.94535971 0.917166 0.372729 0.140995
-0.80299890 -0.43670630 -3.06183767 -0.988670 -0.149594 0.012372
-0.80930138 -0.39135146 -3.01193762 -0.988670 -0.149594 0.012372
0.13689667 -0.11409259 -2.87980628 0.805593 0.473784 0.355737
0.09545898 -0.07356548 -2.84015131 0.805593 0.473784 0.355737
0.16764230 -0.14730954 -2.92953062 0.924054 0.348093 0.157970
0.18769622 -0.17321706 -2.98932433 0.924054 0.348093 0.157970
0.05566102 -0.06707668 -2.78333712 0.633255 0.558953 0.535312
0.00137120 -0.03524423 -2.75217080 0.633255 0.558953 0.535312
0.10150823 -0.09583354 -2.82409835 0.807626 0.462186 0.366230
0.13891298 -0.12151527 -2.87445521 0.807626 0.462186 0.366230
0.00719619 -0.05743647 -2.73593140 0.638533 0.544185 0.544185
0.05760264 -0.07447410 -2.77792382 0.638533 0.544185 0.544185
-0.04984295 -0.03791595 -2.70501328 0.419988 0.605912 0.675633
-0.11351496 -0.01591277 -2.68516994 0.419988 0.605912 0.675633
-0.10795641 -0.03807282 -2.66879368 0.423215 0.592501 0.685442
-0.04799014 -0.04530287 -2.69955444 0.423215 0.592501 0.685442
-0.17241102 -0.02860212 -2.65018344 0.178191 0.613768 0.769114
-0.24135411 -0.01689100 -2.64372373 0.178191 0.613768 0.769114
-0.30367386 -0.03977108 -2.62259126 -0.078872 0.580783 0.810228
-0.37341726 -0.03811240 -2.63066244 -0.078872 0.580783 0.810228
-0.23608655 -0.03906488 -2.62726998 0.177828 0.600360 0.779708
-0.17065525 -0.03599358 -2.64469886 0.177828 0.600360 0.779708
-0.43466842 -0.07066011 -2.62412095 -0.330240 0.512112 0.792895
-0.50068641 -0.07812786 -2.64687777 -0.330240 0.512112 0.792895
-0.36844516 -0.06034470 -2.61419582 -0.078655 0.567744 0.819439
-0.30201662 -0.04718184 -2.61710215 -0.078655 0.567744 0.819439
-0.49599409 -0.10045934 -2.63046360 -0.326171 0.498007 0.803494
-0.43310440 -0.07810378 -2.61864948 -0.326171 0.498007 0.803494
-0.55644977 -0.11915970 -2.65466785 -0.560237 0.411502 0.718888
-0.61447155 -0.13420463 -2.69126248 -0.560237 0.411502 0.718888
-0.66070211 -0.18195844 -2.71214676 -0.749883 0.284987 0.597041
-0.70700228 -0.20251393 -2.76078606 -0.749883 0.284987 0.597041
-0.61002386 -0.15666986 -2.67496276 -0.557148 0.399371 0.728072
-0.55496740 -0.12664819 -2.64923477 -0.557148 0.399371 0.728072
-0.70274806 -0.22513771 -2.74465466 -0.750273 0.268068 0.604343
-0.65928423 -0.18949986 -2.70676947 -0.750273 0.268068 0.604343
-0.74030685 -0.25476813 -2.79263186 -0.892279 0.138482 0.429722
-0.77196074 -0.27839136 -2.85070086 -0.892279 0.138482 0.429722
-0.78982794 -0.33261704 -2.89062786 -0.972595 -0.013095 0.232137
-0.80491102 -0.35665536 -2.95486736 -0.972595 -0.013095 0.232137
-0.76783490 -0.30118752 -2.83478045 -0.890120 0.123509 0.438671
-0.73893178 -0.26236701 -2.78732491 -0.890120 0.123509 0.438671
-0.80084026 -0.37962675 -2.93918610 -0.969759 -0.025361 0.242742
-0.78847110 -0.34027410 -2.88540077 -0.969759 -0.025361 0.242742
-0.80523074 -0.41432285 -2.99625635 -0.984737 -0.172012 0.026552
-0.80164206 -0.44436336 -3.05661082 -0.984737 -0.172012 0.026552
0.19197822 -0.19072723 -2.97736073 0.926742 0.336870 0.166338
0.16906968 -0.15314627 -2.92554283 0.926742 0.336870 0.166338
-0.79790962 -0.46202421 -3.04468441 -0.981696 -0.186934 0.036446
-0.80398643 -0.42020988 -2.99228072 -0.981696 -0.186934 0.036446
0.17445338 -0.17588520 -2.90998363 0.926742 0.336870 0.166338
0.19377282 -0.19830751 -2.97217417 0.926742 0.336870 0.166338
0.14429680 -0.14425445 -2.85889626 0.811660 0.448087 0.374735
0.10330269 -0.10341287 -2.81891251 0.811660 0.448087 0.374735
0.06295639 -0.09719253 -2.76232409 0.641604 0.530460 0.554036
0.00898063 -0.06500864 -2.73073196 0.641604 0.530460 0.554036
0.10865641 -0.12613106 -2.80331278 0.815496 0.432484 0.384608
0.14608127 -0.15182662 -2.85369682 0.815496 0.432484 0.384608
-0.04267710 -0.06800747 -2.68392086 0.426318 0.578930 0.695048
-0.10618556 -0.04564047 -2.66358280 0.426318 0.578930 0.695048
0.01429367 -0.08771324 -2.71509790 0.645602 0.514122 0.564691
0.06472725 -0.10475993 -2.75711322 0.645602 0.514122 0.564691
-0.10092092 -0.06833911 -2.64792442 0.430100 0.562950 0.705763
-0.04092234 -0.07557321 -2.67870188 0.430100 0.562950 0.705763
-0.16539061 -0.05869222 -2.62904024 0.181106 0.585930 0.789865
-0.23433191 -0.04663038 -2.62205100 0.181106 0.585930 0.789865
-0.29680467 -0.06988311 -2.60142994 -0.075464 0.556728 0.827260
-0.36670798 -0.06791115 -2.60897207 -0.075464 0.556728 0.827260
-0.22911990 -0.06933188 -2.60637856 0.187273 0.570955 0.799337
-0.16365343 -0.06625867 -2.62381649 0.187273 0.570955 0.799337
-0.36154974 -0.09062314 -2.59329724 -0.069351 0.539241 0.839291
-0.29508537 -0.07745314 -2.59620523 -0.069351 0.539241 0.839291
-0.42794609 -0.10081601 -2.60297489 -0.325194 0.486998 0.810606
-0.49427497 -0.10802960 -2.62523913 -0.325194 0.486998 0.810606
-0.48916733 -0.13075948 -2.60957384 -0.320151 0.471553 0.821670
-0.42624366 -0.10839200 -2.59775329 -0.320151 0.471553 0.821670
-0.54985988 -0.14937806 -2.63356948 -0.554660 0.384499 0.737911
-0.60832155 -0.16424608 -2.66974163 -0.554660 0.384499 0.737911
-0.65422094 -0.21225381 -2.69112492 -0.746370 0.257206 0.613822
-0.70106041 -0.23272181 -2.73944044 -0.746370 0.257206 0.613822
-0.60325837 -0.18700027 -2.65409708 -0.552018 0.369641 0.747423
-0.54817224 -0.15696216 -2.62835503 -0.552018 0.369641 0.747423
-0.69603217 -0.25550461 -2.72382641 -0.743480 0.240491 0.624020
-0.65254509 -0.21984768 -2.68592072 -0.743480 0.240491 0.624020
-0.73390353 -0.28514981 -2.77171111 -0.886837 0.111739 0.448369
-0.76615894 -0.30878139 -2.82957649 -0.886837 0.111739 0.448369
-0.76115429 -0.33159566 -2.81400061 -0.883090 0.096873 0.459094
-0.73223531 -0.29275393 -2.76651955 -0.883090 0.096873 0.459094
-0.78346634 -0.36308837 -2.86982536 -0.966752 -0.040641 0.252464
-0.79917228 -0.38723087 -2.93399477 -0.966752 -0.040641 0.252464
-0.79417753 -0.41007686 -2.91846228 -0.963639 -0.056244 0.261220
-0.78180158 -0.37070322 -2.86464810 -0.963639 -0.056244 0.261220
-0.79899168 -0.44305563 -2.97674847 -0.981696 -0.186934 0.036446
-0.79624474 -0.46964002 -3.03950691 -0.981696 -0.186934 0.036446
0.19805473 -0.21581745 -2.96021056 0.931198 0.316915 0.180097
-0.79251230 -0.48730040 -3.02758050 -0.978672 -0.200047 0.046718
-0.79774773 -0.44894266 -2.97277308 -0.978672 -0.200047 0.046718
0.19898552 -0.22109938 -2.95668793 0.935340 0.294123 0.196547
0.20084757 -0.23166466 -2.94964170 0.934802 0.299527 0.190861
0.20233005 -0.23935342 -2.94457030 0.935153 0.298749 0.190365
0.15052849 -0.17489195 -2.83848286 0.817955 0.419341 0.393830
0.11013895 -0.13381982 -2.79824114 0.817955 0.419341 0.393830
0.06929517 -0.12790799 -2.74206209 0.648259 0.500086 0.574173
0.01581645 -0.09542966 -2.71008062 0.648259 0.500086 0.574173
0.11470670 -0.15696716 -2.78319073 0.821232 0.401880 0.405056
0.15205109 -0.18260741 -2.83346605 0.821232 0.401880 0.405056
0.02054673 -0.11863184 -2.69516563 0.650720 0.485938 0.583462
0.07087189 -0.13564205 -2.73709035 0.650720 0.485938 0.583462
-0.03619188 -0.09877610 -2.66378593 0.432935 0.549047 0.714923
-0.09934402 -0.07607388 -2.64295197 0.432935 0.549047 0.714923
-0.15872973 -0.08948517 -2.60899997 0.189655 0.556826 0.808688
-0.22747862 -0.07707429 -2.60143924 0.189655 0.556826 0.808688
-0.09442043 -0.09929943 -2.62813616 0.438039 0.530606 0.725658
-0.03455073 -0.10651779 -2.65884733 0.438039 0.530606 0.725658
-0.28995085 -0.10066962 -2.58144474 -0.066142 0.524911 0.848583
-0.35983813 -0.09836221 -2.58837652 -0.066142 0.524911 0.848583
-0.22234422 -0.10028982 -2.58667922 0.192757 0.541843 0.818077
-0.15701830 -0.09722352 -2.60407996 0.192757 0.541843 0.818077
-0.42089486 -0.13156581 -2.58300209 -0.317867 0.455661 0.831465
-0.48738420 -0.13848448 -2.60465646 -0.317867 0.455661 0.831465
-0.35448945 -0.12153554 -2.57362604 -0.062888 0.507298 0.859473
-0.28816795 -0.10839391 -2.57652807 -0.062888 0.507298 0.859473
-0.48183286 -0.16158557 -2.58986783 -0.312702 0.440272 0.841652
-0.41904438 -0.13926601 -2.57807279 -0.312702 0.440272 0.841652
-0.54262054 -0.18006420 -2.61356592 -0.549859 0.351975 0.757475
-0.60140777 -0.19470119 -2.64916706 -0.549859 0.351975 0.757475
-0.64681590 -0.24285269 -2.67104864 -0.738339 0.226341 0.635315
-0.69412231 -0.26317334 -2.71886873 -0.738339 0.226341 0.635315
-0.59567881 -0.21770549 -2.63429546 -0.542689 0.339784 0.768138
-0.54071105 -0.18773198 -2.60860872 -0.542689 0.339784 0.768138
-0.72636604 -0.31564403 -2.75152516 -0.879615 0.082508 0.468476
-0.75919771 -0.33922601 -2.80900216 -0.879615 0.082508 0.468476
-0.68825352 -0.28606296 -2.70387483 -0.734966 0.209768 0.644843
-0.64485967 -0.25048232 -2.66605091 -0.734966 0.209768 0.644843
-0.77583921 -0.39346814 -2.84950066 -0.960076 -0.069939 0.270856
-0.79218984 -0.41766548 -2.91341281 -0.960076 -0.069939 0.270856
-0.75323558 -0.36199021 -2.79385543 -0.875549 0.065215 0.478707
-0.72437871 -0.32323217 -2.74647641 -0.875549 0.065215 0.478707
-0.78762269 -0.50513005 -3.01535797 -0.970984 -0.230717 0.062923
-0.79051161 -0.49484611 -3.02247381 -0.972630 -0.224453 0.060099
-0.78617823 -0.51027203 -3.01180029 -0.970984 -0.230717 0.062923
-0.78618765 -0.44030285 -2.89809275 -0.955183 -0.086600 0.283065
-0.77383864 -0.40101385 -2.84439421 -0.955183 -0.086600 0.283065
0.20326084 -0.24463511 -2.94104791 0.936194 0.293517 0.193360
0.20512283 -0.25520015 -2.93400168 0.937461 0.281933 0.204158
-0.78473389 -0.51541305 -3.00824308 -0.970984 -0.230717 0.062923
-0.78184474 -0.52569699 -3.00112724 -0.968150 -0.239219 0.073895
0.20625818 -0.26298738 -2.92907071 0.941008 0.259158 0.217582
0.15545723 -0.20596862 -2.81867337 0.824110 0.382679 0.417612
0.11584204 -0.16475439 -2.77825975 0.824110 0.382679 0.417612
0.11953405 -0.18831134 -2.76385212 0.827545 0.362348 0.428804
0.15668786 -0.21382093 -2.81387091 0.827545 0.362348 0.428804
0.07456392 -0.15919948 -2.72268248 0.654631 0.467115 0.594358
0.02177739 -0.12648439 -2.69036293 0.654631 0.467115 0.594358
-0.03047335 -0.13020539 -2.64476061 0.441316 0.514043 0.735527
-0.09306133 -0.10719538 -2.62344027 0.441316 0.514043 0.735527
0.02585471 -0.15017176 -2.67627621 0.657280 0.446549 0.607106
0.07592303 -0.16709518 -2.71798706 0.657280 0.446549 0.607106
-0.08852559 -0.13093805 -2.60958862 0.442960 0.492361 0.749245
-0.02896142 -0.13811946 -2.64014339 0.442960 0.492361 0.749245
-0.15248245 -0.12096620 -2.59022808 0.195126 0.521849 0.830421
-0.22083235 -0.10820413 -2.58206201 0.195126 0.521849 0.830421
-0.28313208 -0.13211322 -2.56280947 -0.059654 0.489717 0.869838
-0.35281074 -0.12944198 -2.56905317 -0.059654 0.489717 0.869838
-0.21579653 -0.13192344 -2.56834364 0.200264 0.501413 0.841712
-0.15080392 -0.12887263 -2.58565569 0.200264 0.501413 0.841712
-0.41350067 -0.16288471 -2.56437635 -0.310694 0.421987 0.851702
-0.47998488 -0.16945863 -2.58530235 -0.310694 0.421987 0.851702
-0.34726715 -0.15306044 -2.55535698 -0.056307 0.471053 0.880306
-0.28128421 -0.13998604 -2.55824423 -0.056307 0.471053 0.880306
-0.47396052 -0.19290614 -2.57151604 -0.304987 0.403073 0.862853
-0.41149259 -0.17070055 -2.55978107 -0.304987 0.403073 0.862853
-0.53468645 -0.21117997 -2.59482193 -0.539397 0.318517 0.779485
-0.59367049 -0.22552133 -2.62969971 -0.539397 0.318517 0.779485
-0.58722532 -0.24873948 -2.61571646 -0.533986 0.299476 0.790679
-0.53253818 -0.21891928 -2.59016109 -0.533986 0.299476 0.790679
-0.63841426 -0.27370071 -2.65206718 -0.729873 0.192884 0.655806
-0.68610489 -0.29380226 -2.69921374 -0.729873 0.192884 0.655806
-0.67932749 -0.31674814 -2.68494129 -0.723452 0.172833 0.668390
-0.63615525 -0.28134918 -2.64730978 -0.723452 0.172833 0.668390
-0.71760118 -0.34617829 -2.73220348 -0.869345 0.048220 0.491848
-0.75097644 -0.36963892 -2.78909779 -0.869345 0.048220 0.491848
-0.74397779 -0.39228797 -2.77446222 -0.864264 0.028582 0.502226
-0.71526825 -0.35372782 -2.72732520 -0.864264 0.028582 0.502226
-0.76683998 -0.42366290 -2.82975841 -0.950157 -0.104109 0.293876
-0.78385484 -0.44785261 -2.89321423 -0.950157 -0.104109 0.293876
-0.77948046 -0.53314662 -2.99611163 -0.960937 -0.262306 0.088289
-0.77676177 -0.47020078 -2.87816763 -0.943997 -0.121849 0.306632
-0.76447558 -0.43111229 -2.82474303 -0.943997 -0.121849 0.306632
0.20729876 -0.27266192 -2.92277718 0.942541 0.247020 0.224940
0.20781907 -0.27749896 -2.91963053 0.942541 0.247020 0.224940
-0.77624857 -0.54222083 -2.98966980 -0.957264 -0.273319 0.094561
-0.77463281 -0.54675794 -2.98644876 -0.954736 -0.280038 0.100293
0.20833933 -0.28233600 -2.91648388 0.942541 0.247020 0.224940
0.20938015 -0.29201102 -2.91019011 0.942627 0.241522 0.230481
0.21013349 -0.29988694 -2.90542459 0.944863 0.215929 0.246187
0.15894800 -0.23744798 -2.79957414 0.829607 0.344751 0.439203
0.12028745 -0.19618726 -2.75908637 0.829607 0.344751 0.439203
0.07864916 -0.19104218 -2.70431757 0.658594 0.428503 0.618578
0.02676350 -0.15815401 -2.67171955 0.658594 0.428503 0.618578
0.12301359 -0.22013378 -2.74541688 0.830846 0.321973 0.453903
0.15985671 -0.24542999 -2.79501772 0.830846 0.321973 0.453903
0.03011739 -0.18231297 -2.65857315 0.664225 0.405823 0.627784
0.07976711 -0.19909477 -2.69993544 0.664225 0.405823 0.627784
-0.02560759 -0.16227841 -2.62699652 0.447349 0.473568 0.758691
-0.08740759 -0.13899112 -2.60520649 0.447349 0.473568 0.758691
-0.14670324 -0.15312195 -2.57289219 0.202886 0.482418 0.852121
-0.21442962 -0.14000654 -2.56408930 0.202886 0.482418 0.852121
-0.08330691 -0.16323996 -2.59244323 0.448889 0.455419 0.768825
-0.02424067 -0.17036128 -2.62274218 0.448889 0.455419 0.768825
-0.27636844 -0.16419697 -2.54569769 -0.050353 0.450453 0.891379
-0.34562850 -0.16113067 -2.55117464 -0.050353 0.450453 0.891379
-0.20951378 -0.16421700 -2.55154276 0.210881 0.459151 0.862965
-0.14506471 -0.16119194 -2.56871009 0.210881 0.459151 0.862965
-0.33988559 -0.18517756 -2.53866482 -0.044373 0.428936 0.902244
-0.27445412 -0.17221236 -2.54152775 -0.044373 0.428936 0.902244
-0.40574956 -0.19474769 -2.54727101 -0.299575 0.381692 0.874395
-0.47204602 -0.20092177 -2.56734586 -0.299575 0.381692 0.874395
-0.52601182 -0.24268770 -2.57750368 -0.529747 0.281379 0.800122
-0.58504999 -0.25666237 -2.61149740 -0.529747 0.281379 0.800122
-0.46551991 -0.22469020 -2.55468845 -0.293285 0.359463 0.885873
-0.40357411 -0.20267034 -2.54305172 -0.293285 0.359463 0.885873
-0.62894332 -0.30474401 -2.63433218 -0.716388 0.156000 0.680038
-0.67692363 -0.32454634 -2.68061519 -0.716388 0.156000 0.680038
-0.57783806 -0.28005695 -2.59851980 -0.520873 0.259659 0.813184
-0.52360785 -0.25048566 -2.57317781 -0.520873 0.259659 0.813184
-0.66917026 -0.34749699 -2.66716576 -0.712674 0.133533 0.688668
-0.62635875 -0.31239390 -2.62984896 -0.712674 0.133533 0.688668
-0.70751512 -0.37667847 -2.71387577 -0.858167 0.009430 0.513284
-0.74139321 -0.39993811 -2.76997900 -0.858167 0.009430 0.513284
-0.75636232 -0.45357966 -2.81070232 -0.937941 -0.140215 0.317185
-0.77405727 -0.47768998 -2.87348747 -0.937941 -0.140215 0.317185
-0.73328030 -0.42240524 -2.75593853 -0.850476 -0.006761 0.525970
-0.70481062 -0.38416743 -2.70919561 -0.850476 -0.006761 0.525970
-0.76579010 -0.49966693 -2.85877681 -0.929609 -0.159798 0.332102
-0.75360668 -0.46090531 -2.80579901 -0.929609 -0.159798 0.332102
-0.76864564 -0.56315780 -2.97510386 -0.957241 -0.271456 0.100010
-0.77187717 -0.55408335 -2.98154545 -0.954947 -0.278254 0.103202
-0.76702964 -0.56769586 -2.97188234 -0.948557 -0.295844 0.112766
0.21047726 -0.30882788 -2.89975595 0.946351 0.198010 0.255365
0.21064925 -0.31329942 -2.89692092 0.946351 0.198010 0.255365
-0.76349747 -0.57576358 -2.96599770 -0.939791 -0.317771 0.125756
-0.76173103 -0.57979846 -2.96305466 -0.938011 -0.321720 0.128960
0.16086647 -0.26929212 -2.78129244 0.832866 0.301582 0.464092
0.12335008 -0.22808766 -2.74084210 0.832866 0.301582 0.464092
0.21082112 -0.31776977 -2.89408636 0.946351 0.198010 0.255365
0.21116489 -0.32671189 -2.88841724 0.946196 0.195247 0.258053
0.21150163 -0.33466649 -2.88384175 0.946617 0.167050 0.275700
0.08143711 -0.22341037 -2.68709898 0.664309 0.384079 0.641231
0.03067398 -0.19041800 -2.65429449 0.664309 0.384079 0.641231
0.12502012 -0.25240302 -2.72800589 0.833928 0.277976 0.476752
0.16142315 -0.27739692 -2.77701402 0.833928 0.277976 0.476752
0.03323394 -0.21503425 -2.64219999 0.664750 0.359458 0.654902
0.08229041 -0.23161554 -2.68306780 0.664750 0.359458 0.654902
-0.02168071 -0.19497776 -2.61064768 0.452939 0.430211 0.780874
-0.08245373 -0.17144513 -2.58841181 0.452939 0.430211 0.780874
-0.07883489 -0.19618917 -2.57685995 0.454028 0.405555 0.793337
-0.02047455 -0.20322537 -2.60679722 0.454028 0.405555 0.793337
-0.14144588 -0.18593574 -2.55715823 0.212690 0.438765 0.873068
-0.20830762 -0.17246485 -2.54769254 0.212690 0.438765 0.873068
-0.26968050 -0.19690204 -2.53028393 -0.041162 0.407641 0.912214
-0.33829439 -0.19340730 -2.53491712 -0.041162 0.407641 0.912214
-0.20353401 -0.19715452 -2.53644848 0.217455 0.415679 0.883133
-0.13985473 -0.19416547 -2.55341053 0.217455 0.415679 0.883133
-0.39762771 -0.22712755 -2.53185892 -0.290445 0.338108 0.895167
-0.46353781 -0.23284245 -2.55095792 -0.290445 0.338108 0.895167
-0.33234799 -0.21786451 -2.52372456 -0.035429 0.384467 0.922459
-0.26769841 -0.20505428 -2.52655315 -0.035429 0.384467 0.922459
-0.45648110 -0.25690508 -2.53955650 -0.283284 0.315575 0.905628
-0.39527559 -0.23514819 -2.52805901 -0.283284 0.315575 0.905628
-0.51655114 -0.27454829 -2.56177664 -0.515400 0.238469 0.823101
-0.57548594 -0.28807759 -2.59471965 -0.515400 0.238469 0.823101
-0.56745720 -0.31161022 -2.58286428 -0.506543 0.214482 0.835112
-0.51387513 -0.28239250 -2.55782509 -0.506543 0.214482 0.835112
-0.61833012 -0.33592653 -2.61799359 -0.703968 0.114117 0.701004
-0.66649401 -0.35534096 -2.66321421 -0.703968 0.114117 0.701004
-0.65769815 -0.37824440 -2.65068960 -0.695442 0.089309 0.713011
-0.61539817 -0.34356093 -2.61381912 -0.695442 0.089309 0.713011
-0.69601476 -0.40707088 -2.69667101 -0.842743 -0.028870 0.537541
-0.73034823 -0.43003964 -2.75176406 -0.842743 -0.028870 0.537541
-0.72104204 -0.45225787 -2.73840189 -0.833295 -0.051818 0.550395
-0.69291270 -0.41447663 -2.69221735 -0.833295 -0.051818 0.550395
-0.74430048 -0.48312330 -2.79243708 -0.922019 -0.179321 0.343110
-0.76268804 -0.50707269 -2.85432291 -0.922019 -0.179321 0.343110
-0.75502396 -0.59504139 -2.95239902 -0.940272 -0.315228 0.128526
-0.75855637 -0.58697271 -2.95828438 -0.938011 -0.321720 0.128960
-0.75325775 -0.59907627 -2.94945621 -0.928861 -0.340904 0.144919
-0.75316346 -0.52859616 -2.84001160 -0.911706 -0.202442 0.357504
-0.74112570 -0.49029756 -2.78766680 -0.911706 -0.202442 0.357504
0.21137109 -0.33883119 -2.88127041 0.946670 0.146781 0.286829
0.21111053 -0.34716249 -2.87612724 0.946670 0.146781 0.286829
-0.75135589 -0.60268438 -2.94674730 -0.917755 -0.364010 0.158815
-0.74755204 -0.60990238 -2.94132876 -0.916895 -0.364786 0.161971
0.21098009 -0.35132718 -2.87355614 0.946670 0.146781 0.286829
0.21071923 -0.35965753 -2.86841345 0.947041 0.144144 0.286941
0.18964446 -0.33721638 -2.81073856 0.945360 0.119006 0.303532
0.21060425 -0.36767983 -2.86405420 0.945360 0.119006 0.303532
0.16107804 -0.30146480 -2.76393604 0.834389 0.254481 0.488912
0.12490505 -0.26042557 -2.72364664 0.834389 0.254481 0.488912
0.08281469 -0.25628018 -2.67116022 0.666485 0.334057 0.666485
0.03340864 -0.22325563 -2.63823080 0.666485 0.334057 0.666485
0.12542933 -0.28509021 -2.71173882 0.833576 0.227895 0.503205
0.16125274 -0.30968618 -2.75996685 0.833576 0.227895 0.503205
0.03510451 -0.24831629 -2.62729883 0.667684 0.308784 0.677385
0.08337992 -0.26463342 -2.66751623 0.667684 0.308784 0.677385
-0.01877862 -0.22828603 -2.59586549 0.457307 0.380287 0.803898
-0.07826966 -0.20454240 -2.57321644 0.457307 0.380287 0.803898
-0.13676518 -0.21939421 -2.54319382 0.218903 0.389324 0.894711
-0.20250416 -0.20556378 -2.53304291 0.218903 0.389324 0.894711
-0.07518017 -0.22977114 -2.56299949 0.459008 0.354183 0.814780
-0.01774883 -0.23669553 -2.59245992 0.459008 0.354183 0.814780
-0.19789368 -0.23072124 -2.52323127 0.222924 0.362798 0.904811
-0.13522840 -0.22777963 -2.53992319 0.222924 0.362798 0.904811
-0.26308787 -0.23021150 -2.51674151 -0.029693 0.357609 0.933399
-0.33081120 -0.22625017 -2.52045393 -0.029693 0.357609 0.933399
-0.32465672 -0.25110149 -2.51070976 -0.024120 0.331328 0.943207
-0.26103652 -0.23849511 -2.51349354 -0.024120 0.331328 0.943207
-0.38912106 -0.25999951 -2.51831460 -0.276385 0.290855 0.915977
-0.45442963 -0.26518846 -2.53630877 -0.276385 0.290855 0.915977
-0.44681346 -0.28952026 -2.52628970 -0.269685 0.263977 0.926060
-0.38658249 -0.26810980 -2.51497507 -0.269685 0.263977 0.926060
-0.50625885 -0.30672407 -2.54780626 -0.499469 0.193488 0.844448
-0.56491864 -0.31972051 -2.57952476 -0.499469 0.193488 0.844448
-0.55602252 -0.34335446 -2.56890774 -0.489327 0.167051 0.855952
-0.50329363 -0.31460190 -2.54426718 -0.489327 0.167051 0.855952
-0.60650229 -0.36719489 -2.60320234 -0.686437 0.067921 0.724010
-0.65473282 -0.38612223 -2.64715099 -0.686437 0.067921 0.724010
-0.64482701 -0.40892792 -2.63565350 -0.677527 0.041191 0.734343
-0.60320032 -0.37479639 -2.59937000 -0.677527 0.041191 0.734343
-0.68300676 -0.43728232 -2.68072009 -0.822981 -0.072742 0.563392
-0.71774018 -0.45985937 -2.73456979 -0.822981 -0.072742 0.563392
-0.73054779 -0.51220083 -2.77506638 -0.902932 -0.220263 0.369050
-0.74963760 -0.53589702 -2.83581161 -0.902932 -0.220263 0.369050
-0.70716214 -0.48176265 -2.72196913 -0.812430 -0.097028 0.574928
-0.67948091 -0.44458318 -2.67651987 -0.812430 -0.097028 0.574928
-0.74012661 -0.62411547 -2.93129420 -0.917755 -0.364010 0.158815
-0.74393022 -0.61689830 -2.93671227 -0.916895 -0.364786 0.161971
-0.73822498 -0.62772357 -2.92858553 -0.905971 -0.385002 0.176042
-0.73877227 -0.55688572 -2.82196093 -0.889870 -0.245123 0.384768
-0.72692597 -0.51919675 -2.77044964 -0.889870 -0.245123 0.384768
0.20821372 -0.39112830 -2.84997416 0.943159 0.093919 0.318796
0.18884748 -0.34503174 -2.80604553 0.943159 0.093919 0.318796
-0.72605669 -0.64718473 -2.91351891 -0.891263 -0.409893 0.194006
-0.73848259 -0.59954798 -2.86965108 -0.891263 -0.409893 0.194006
0.18704259 -0.36927438 -2.79368925 0.940382 0.066703 0.333515
0.20761195 -0.39920878 -2.84585571 0.940382 0.066703 0.333515
0.15944767 -0.33392787 -2.74761128 0.833469 0.198157 0.515813
0.12482759 -0.29317021 -2.70762062 0.833469 0.198157 0.515813
0.08266789 -0.28962564 -2.65663242 0.670138 0.283089 0.686131
0.03486711 -0.25664663 -2.62367129 0.670138 0.283089 0.686131
0.12411574 -0.31816339 -2.69673610 0.829862 0.171953 0.530812
0.15921047 -0.34225917 -2.74398279 0.829862 0.171953 0.530812
0.03562820 -0.28213763 -2.61401367 0.668438 0.251257 0.700043
0.08292162 -0.29812288 -2.65341282 0.668438 0.251257 0.700043
-0.01698792 -0.26218557 -2.58280325 0.461989 0.326388 0.824643
-0.07492661 -0.23826742 -2.55978084 0.461989 0.326388 0.824643
-0.13271511 -0.25348115 -2.53116536 0.226319 0.332992 0.915367
-0.19705600 -0.23928785 -2.52031231 0.226319 0.332992 0.915367
-0.07241309 -0.26396966 -2.55102229 0.462115 0.297185 0.835542
-0.01615000 -0.27075315 -2.57988358 0.462115 0.297185 0.835542
-0.19263053 -0.26490045 -2.51206303 0.232727 0.304116 0.923770
-0.13123983 -0.26201892 -2.52841544 0.232727 0.304116 0.923770
-0.25661111 -0.26410675 -2.50524497 -0.016143 0.304240 0.952459
-0.32318163 -0.25963831 -2.50796032 -0.016143 0.304240 0.952459
-0.31681502 -0.28486609 -2.49979591 -0.013415 0.271957 0.962216
-0.25448883 -0.27251625 -2.50252318 -0.013415 0.271957 0.962216
-0.38021600 -0.29333687 -2.50681162 -0.258964 0.236567 0.936469
-0.44469142 -0.29792905 -2.52356887 -0.258964 0.236567 0.936469
-0.49508941 -0.33917546 -2.53575850 -0.480268 0.137841 0.866223
-0.55328786 -0.35154533 -2.56607175 -0.480268 0.137841 0.866223
-0.43648708 -0.32250357 -2.51505947 -0.250480 0.206680 0.945803
-0.37748110 -0.30152869 -2.50397491 -0.250480 0.206680 0.945803
-0.59338725 -0.39849281 -2.59010935 -0.663820 0.018168 0.747671
-0.64155591 -0.41682625 -2.63256693 -0.663820 0.018168 0.747671
-0.54347456 -0.37524271 -2.55681038 -0.467687 0.109459 0.877091
-0.49181819 -0.34707499 -2.53267121 -0.467687 0.109459 0.877091
-0.66839755 -0.46723819 -2.66615200 -0.800079 -0.119349 0.587903
-0.70346785 -0.48931384 -2.71851349 -0.800079 -0.119349 0.587903
-0.63047230 -0.43948197 -2.62219834 -0.652470 -0.009697 0.757752
-0.58969271 -0.40604496 -2.58665276 -0.652470 -0.009697 0.757752
-0.69153988 -0.51083541 -2.70675850 -0.785926 -0.148203 0.600297
-0.66442144 -0.47441220 -2.66223335 -0.785926 -0.148203 0.600297
-0.71499813 -0.54071736 -2.75869513 -0.876063 -0.269906 0.399581
-0.73479629 -0.56405878 -2.81804323 -0.876063 -0.269906 0.399581
-0.72250700 -0.58443046 -2.80471611 -0.862780 -0.292701 0.412234
-0.71090162 -0.54750824 -2.75425243 -0.862780 -0.292701 0.412234
-0.72619319 -0.61991954 -2.85632420 -0.876146 -0.434367 0.209030
-0.72196054 -0.65397489 -2.90907717 -0.876146 -0.434367 0.209030
0.20376360 -0.42135334 -2.83293819 0.936044 0.037442 0.349887
0.18575975 -0.37665582 -2.78938365 0.936044 0.037442 0.349887
-0.70906484 -0.67153358 -2.89502573 -0.860765 -0.456763 0.224613
-0.72189474 -0.62577236 -2.85164046 -0.860765 -0.456763 0.224613
0.18239036 -0.40104270 -2.77782559 0.931632 0.011470 0.363222
0.20264059 -0.42948270 -2.82908535 0.931632 0.011470 0.363222
0.15584108 -0.36664629 -2.73242474 0.828560 0.140309 0.542035
0.12299255 -0.32629228 -2.69288349 0.828560 0.140309 0.542035
0.12095445 -0.35159326 -2.68311739 0.822526 0.112096 0.557571
0.15516165 -0.37507963 -2.72916961 0.822526 0.112096 0.557571
0.08088350 -0.32342386 -2.64364696 0.666002 0.219921 0.712794
0.03494877 -0.29057097 -2.61075854 0.666002 0.219921 0.712794
-0.01639414 -0.29666066 -2.57161212 0.464972 0.262410 0.845543
-0.07249451 -0.27260518 -2.54826546 0.464972 0.262410 0.845543
0.03470469 -0.31647849 -2.60248709 0.664997 0.185831 0.723357
0.08080214 -0.33205938 -2.64088988 0.664997 0.185831 0.723357
-0.12934965 -0.28818345 -2.52123880 0.235070 0.271667 0.933241
-0.19200051 -0.27362180 -2.50967121 0.235070 0.271667 0.933241
-0.07060426 -0.29876995 -2.54108858 0.468043 0.231749 0.852777
-0.01576412 -0.30538201 -2.56922007 0.468043 0.231749 0.852777
-0.18778157 -0.29967713 -2.50311470 0.239701 0.239701 0.940791
-0.12794340 -0.29686832 -2.51905346 0.239701 0.239701 0.940791
-0.25026995 -0.29857159 -2.49596691 -0.005963 0.244495 0.969632
-0.31540883 -0.29355097 -2.49761081 -0.005963 0.244495 0.969632
-0.37089789 -0.32711554 -2.49752188 -0.242746 0.178372 0.953550
-0.43429267 -0.33103228 -2.51290870 -0.242746 0.178372 0.953550
-0.30882561 -0.31913805 -2.49115801 0.001162 0.210402 0.977614
-0.24807560 -0.30710030 -2.49381614 0.001162 0.210402 0.977614
-0.42547119 -0.35582352 -2.50603533 -0.231640 0.145266 0.961894
-0.36795759 -0.33537912 -2.49523115 -0.231640 0.145266 0.961894
-0.48299670 -0.37186623 -2.52579784 -0.459643 0.079153 0.884570
-0.54053414 -0.38350606 -2.55451965 -0.459643 0.079153 0.884570
-0.57891166 -0.42976785 -2.57886386 -0.637075 -0.038140 0.769858
-0.62687886 -0.44738936 -2.61960220 -0.637075 -0.038140 0.769858
-0.52975333 -0.40722895 -2.54673052 -0.446108 0.050170 0.893572
-0.47940314 -0.37977362 -2.52320170 -0.446108 0.050170 0.893572
-0.65209353 -0.49686670 -2.65309620 -0.770767 -0.174829 0.612661
-0.68743050 -0.51831985 -2.70371270 -0.770767 -0.174829 0.612661
-0.61455107 -0.46984386 -2.61046481 -0.623917 -0.064543 0.778821
-0.57480252 -0.43725228 -2.57581806 -0.623917 -0.064543 0.778821
-0.67407405 -0.53939271 -2.69288635 -0.755722 -0.202453 0.622814
-0.64764154 -0.50389075 -2.64948750 -0.755722 -0.202453 0.622814
-0.69754517 -0.56858099 -2.74342632 -0.846336 -0.318346 0.427050
-0.71805501 -0.59145439 -2.80110765 -0.846336 -0.318346 0.427050
-0.70809793 -0.64544427 -2.83890009 -0.844864 -0.478196 0.239862
-0.70446575 -0.67809141 -2.89077854 -0.844864 -0.478196 0.239862
-0.70425808 -0.61112654 -2.78836679 -0.829352 -0.341498 0.442216
-0.69294631 -0.57513809 -2.73917961 -0.829352 -0.341498 0.442216
0.19743922 -0.45052791 -2.81717801 0.925146 -0.019409 0.379116
0.18065676 -0.40805864 -2.77385592 0.925146 -0.019409 0.379116
-0.69084752 -0.69398236 -2.87759638 -0.826077 -0.500606 0.258827
-0.70355844 -0.65074217 -2.83450556 -0.826077 -0.500606 0.258827
0.15012348 -0.39958096 -2.71848416 0.818496 0.078839 0.569077
0.11927509 -0.35976052 -2.67955542 0.818496 0.078839 0.569077
0.17561859 -0.43256021 -2.76317072 0.918995 -0.049066 0.391203
0.19575989 -0.45869565 -2.81361604 0.918995 -0.049066 0.391203
0.11582097 -0.38534975 -2.67100310 0.813238 0.046350 0.580082
0.14897212 -0.40811110 -2.71563339 0.813238 0.046350 0.580082
0.07734805 -0.35764861 -2.63233757 0.662679 0.156192 0.732435
0.03355336 -0.32500839 -2.59963608 0.662679 0.156192 0.732435
-0.01708353 -0.33169246 -2.56244564 0.467327 0.198577 0.861494
-0.07104409 -0.30754042 -2.53883028 0.467327 0.198577 0.861494
0.03223395 -0.35131907 -2.59286189 0.659061 0.120505 0.742373
0.07690823 -0.36641908 -2.63007927 0.659061 0.120505 0.742373
-0.06982410 -0.33415723 -2.53335881 0.466249 0.162237 0.869650
-0.01667678 -0.34056520 -2.56062174 0.466249 0.162237 0.869650
-0.12672353 -0.32348514 -2.51358175 0.244071 0.205892 0.947649
-0.18737483 -0.30854964 -2.50129056 0.244071 0.205892 0.947649
-0.24408460 -0.33358717 -2.48908257 0.008001 0.177169 0.984148
-0.30749536 -0.32796717 -2.48958015 0.008001 0.177169 0.984148
-0.18338388 -0.33503652 -2.49655700 0.247499 0.169905 0.953875
-0.12539315 -0.33231449 -2.51200390 0.247499 0.169905 0.953875
-0.30069107 -0.35389662 -2.48496962 0.014571 0.142348 0.989709
-0.24181652 -0.34223056 -2.48754549 0.014571 0.142348 0.989709
-0.36115336 -0.36130834 -2.49062061 -0.223220 0.113523 0.968135
-0.42320311 -0.36446691 -2.50449824 -0.223220 0.113523 0.968135
-0.41373563 -0.38944960 -2.49938750 -0.211638 0.080447 0.974032
-0.35799742 -0.36963630 -2.48891687 -0.211638 0.080447 0.974032
-0.46993554 -0.40475631 -2.51809096 -0.431745 0.019805 0.901778
-0.52659738 -0.41555667 -2.54502678 -0.431745 0.019805 0.901778
-0.51479840 -0.43926787 -2.53882647 -0.416143 -0.009132 0.909253
-0.46600258 -0.41266012 -2.51602411 -0.416143 -0.009132 0.909253
-0.56300366 -0.46096373 -2.56961775 -0.607743 -0.094732 0.788463
-0.61061811 -0.47774792 -2.60839796 -0.607743 -0.094732 0.788463
-0.59697831 -0.49994993 -2.60059309 -0.590255 -0.125744 0.797363
-0.55845702 -0.46836448 -2.56701612 -0.590255 -0.125744 0.797363
-0.63400185 -0.52609253 -2.64168286 -0.737854 -0.230286 0.634460
-0.66952741 -0.54679370 -2.69028473 -0.737854 -0.230286 0.634460
-0.65466368 -0.56735170 -2.68047023 -0.715557 -0.258616 0.648919
-0.62904727 -0.53294563 -2.63841128 -0.715557 -0.258616 0.648919
-0.67808259 -0.59569609 -2.72936511 -0.810153 -0.369123 0.455412
-0.69930351 -0.61797953 -2.78509545 -0.810153 -0.369123 0.455412
-0.68817067 -0.66963363 -2.82241344 -0.807513 -0.522139 0.274397
-0.68571830 -0.70028007 -2.87356567 -0.807513 -0.522139 0.274397
-0.68391573 -0.63687098 -2.77300334 -0.788076 -0.396466 0.470904
-0.67295325 -0.60199344 -2.72533417 -0.788076 -0.396466 0.470904
0.18927199 -0.47881770 -2.80259299 0.910561 -0.080544 0.405452
0.17345583 -0.43926692 -2.75949645 0.910561 -0.080544 0.405452
-0.67136097 -0.71469295 -2.86113071 -0.784357 -0.546673 0.293143
-0.68338501 -0.67443752 -2.81826854 -0.784357 -0.546673 0.293143
0.16664416 -0.46385336 -2.74975920 0.900123 -0.110591 0.421364
0.18700132 -0.48701262 -2.79934740 0.900123 -0.110591 0.421364
0.14216045 -0.43269730 -2.70589614 0.805053 0.009633 0.593125
0.11355048 -0.39354563 -2.66775703 0.805053 0.009633 0.593125
0.07194799 -0.39227653 -2.62283421 0.655112 0.082797 0.750982
0.03058058 -0.35993838 -2.59044695 0.655112 0.082797 0.750982
0.10859001 -0.41940212 -2.66051292 0.796527 -0.026504 0.604021
0.14050692 -0.44131613 -2.70348167 0.796527 -0.026504 0.604021
-0.01914203 -0.36726594 -2.55545545 0.465946 0.124730 0.875978
-0.07064575 -0.34305787 -2.53163671 0.465946 0.124730 0.875978
0.02811515 -0.38663840 -2.58528113 0.650191 0.046950 0.758319
0.07112610 -0.40117645 -2.62111259 0.650191 0.046950 0.758319
-0.07014310 -0.37011576 -2.52799344 0.463870 0.088289 0.881493
-0.01897454 -0.37628484 -2.55424118 0.463870 0.088289 0.881493
-0.12489027 -0.35937309 -2.50836039 0.249941 0.132168 0.959198
-0.18321609 -0.34405637 -2.49534225 0.249941 0.132168 0.959198
-0.17947489 -0.37096214 -2.49256182 0.251935 0.095914 0.962979
-0.12364316 -0.36834145 -2.50743341 0.251935 0.095914 0.962979
-0.23807502 -0.36913705 -2.48476458 0.023066 0.106544 0.994040
-0.29944384 -0.36286569 -2.48404264 0.023066 0.106544 0.994040
-0.29241449 -0.38912010 -2.48140574 0.028861 0.067343 0.997312
-0.23573196 -0.37788844 -2.48388600 0.028861 0.067343 0.997312
-0.35096788 -0.39589119 -2.48627973 -0.199579 0.046608 0.978773
-0.41139245 -0.39820147 -2.49850845 -0.199579 0.046608 0.978773
-0.45586026 -0.43780875 -2.51280212 -0.403104 -0.046563 0.913969
-0.51141763 -0.44765115 -2.53775239 -0.403104 -0.046563 0.913969
-0.40125012 -0.42334938 -2.49528694 -0.187264 0.008042 0.982277
-0.34758723 -0.40427375 -2.48520613 -0.187264 0.008042 0.982277
-0.49855006 -0.47131300 -2.53325748 -0.385788 -0.079865 0.919124
-0.45157123 -0.44569588 -2.51130414 -0.385788 -0.079865 0.919124
-0.54558921 -0.49202704 -2.56252098 -0.571429 -0.157480 0.805400
-0.59268904 -0.50783753 -2.59909463 -0.571429 -0.157480 0.805400
-0.61402822 -0.55484414 -2.63204074 -0.694736 -0.287200 0.659438
-0.64965737 -0.57465148 -2.67834663 -0.694736 -0.287200 0.659438
-0.57767022 -0.52973557 -2.59272456 -0.551255 -0.189826 0.812456
-0.54058313 -0.49932623 -2.56039762 -0.551255 -0.189826 0.812456
-0.65650380 -0.62197053 -2.71661472 -0.768015 -0.419066 0.484290
-0.67843258 -0.64353025 -2.77009678 -0.768015 -0.419066 0.484290
-0.63320804 -0.59462786 -2.66962767 -0.674264 -0.315303 0.667796
-0.60854530 -0.56150270 -2.62913465 -0.674264 -0.315303 0.667796
-0.66632330 -0.69246686 -2.80688691 -0.766492 -0.564868 0.305637
-0.66567397 -0.72070229 -2.85733700 -0.766492 -0.564868 0.305637
-0.66137099 -0.66155875 -2.75871563 -0.742795 -0.446336 0.499040
-0.65081668 -0.62797987 -2.71282125 -0.742795 -0.446336 0.499040
0.17925888 -0.50636148 -2.78910708 0.887564 -0.144821 0.437330
